ncols         150
nrows         74
xllcorner     648495
yllcorner     5251745
cellsize      10
NODATA_value  -9999
-9999 -9999 -9999 -9999 -9999 -9999 -9999 -9999 -9999 -9999 -9999 -9999 -9999 -9999 2866.028 2863.967 2861.551 2860.295 2860.48 2859.982 2860.678 2858.216 2851.339 2844.526 2837.646 2817.364 2804.766 2782.827 2768.021 2746.69 2729.128 2718.9 2707.821 2696.353 2685.891 2658.006 2644.731 2627.55 2627.044 2617.543 2613.015 2605.129 2601.126 2598.159 2591.357 2585.457 2583.584 2579.468 2573.433 2572.865 2570.409 2567.409 2564.1 2565.553 2558.535 2557.4 2558.77 2556.806 2558.735 2550.536 2551.797 2554.821 2555.437 2549.958 2545.138 2546.428 2545.854 2544.298 2539.691 2538.582 2534.224 2527.383 2528.367 2524.715 2521.944 2524.759 2521.553 2514.737 2511.428 2506.015 2505.208 2502.437 2500.496 2497.235 2493.206 2489.632 2486.684 2489.137 2484.255 2482.991 2478.142 2476.308 2473.103 2470.078 2465.063 2462.01 2459.778 2462.864 2454.42 2450.506 2452.935 2445.844 2446.564 2440.035 2441.351 2433.887 2437.404 2432.216 2441.005 2443.885 2442.946 2436.617 2442.909 2442.881 2442.871 2438.378 2438.808 2429.098 2426.737 2428.144 2426.267 2429.753 2435.659 2432.664 2432.156 2433.908 2432.846 2429.76 2431.127 2429.539 2427.485 2425.121 2427.17 2428.483 2428.622 2428.29 2429.584 2423.61 2427.642 2425.592 2428.075 2424.471 2421.309 2425.58 2418.763 2411.472 2408.383 2405.75 2398.927 2387.975
-9999 -9999 -9999 -9999 -9999 -9999 -9999 -9999 -9999 -9999 -9999 -9999 -9999 -9999 2865.935 2864.337 2865.335 2859.4 2866.241 2859.706 2861.123 2863.337 2855.99 2844.248 2833.353 2824.239 2798.721 2776.738 2763.738 2748.34 2733.22 2717.058 2703.601 2691.357 2683.504 2651.158 2644.038 2631.156 2625.126 2612.865 2607.095 2599.973 2597.423 2593.367 2590.977 2580.346 2582.326 2570.138 2564.525 2568.504 2562.323 2559.989 2560.719 2561.453 2555.208 2558.977 2552.107 2552.344 2548.722 2547.76 2548.545 2545.638 2545.403 2542.576 2542.008 2543.742 2540.312 2539.1 2532.043 2531.781 2531.365 2528.918 2523.937 2522.008 2518.686 2514.778 2515.839 2511.018 2504.853 2502.757 2497.226 2497.832 2495.998 2492.011 2493.274 2491.376 2485.403 2486.068 2479.894 2481.646 2475.021 2472.602 2468.865 2465.819 2462.294 2461.843 2457.216 2458.5 2453.968 2449.705 2445.124 2445.648 2442.803 2438.07 2435.411 2430.625 2427.455 2435.638 2439.081 2438.919 2440.929 2442.977 2435.414 2437.477 2434.875 2436.763 2433.758 2433.128 2430.798 2428.213 2430.436 2427.469 2432.875 2440.16 2436.414 2436.157 2432.41 2432.148 2429.53 2432.594 2425.064 2425.997 2425.402 2428.846 2424.208 2424.909 2427.007 2428.926 2430.248 2429.073 2426.382 2427.787 2425.6 2421.509 2417.8 2411.698 2406.832 2400.483 2397.709 2386.788
-9999 -9999 -9999 -9999 -9999 -9999 -9999 -9999 -9999 -9999 -9999 -9999 -9999 -9999 -9999 -9999 -9999 2863.456 -9999 2860.422 2858.724 2859.252 2855.375 2839.019 2823.401 2806.664 2785.704 2770.996 2761.414 2746.768 2729.6 2719.361 2708.506 2694.053 2675.419 2652.242 2634.616 2631.543 2620.456 2611.458 2607.591 2605.443 2597.163 2587.713 2585.521 2577.667 2578.146 2567.815 2565.507 2562.789 2560.098 2558.531 2557.836 2557.844 2552.48 2552.565 2553.178 2548.737 2548.114 2543.44 2538.708 2538.089 2537.669 2540.394 2542.881 2537.559 2538.362 2533.694 2532.449 2529.64 2528.565 2521.991 2517.366 2519.57 2511.857 2513.59 2508.876 2508.292 2506.961 2500.63 2496.793 2495.273 2486.563 2485.815 2486.143 2485.652 2485.582 2477.294 2477.997 2476.531 2475.478 2469.705 2467.299 2463.368 2458.232 2459.581 2452.1 2447.938 2448.37 2450.938 2442.911 2439.077 2437.912 2429.318 2433.279 2424.844 2428.12 2434.351 2431.192 2440.315 2436.046 2438.781 2439.347 2434.142 2438.564 2437.753 2431.628 2429.914 2429.616 2425.383 2427.378 2426.675 2433.282 2435.316 2438.644 2435.715 2439.765 2437.482 2437.744 2432.572 2430.309 2429.37 2424.389 2425.289 2431.891 2428.65 2430.865 2431.715 2429.245 2427.837 2429.546 2426.799 2424.101 2425.551 2421.456 2415.047 2409.143 2402.039 2400.681 2387.024
-9999 -9999 -9999 -9999 -9999 -9999 -9999 -9999 -9999 -9999 -9999 -9999 -9999 -9999 -9999 -9999 -9999 -9999 -9999 -9999 2857.575 2858.82 2846.068 2834.259 2811.03 2802.699 2778.716 2768.909 2753.582 2743.26 2730.126 2716.424 2709.806 2697.04 2677.971 2661.17 2640.282 2631.324 2620.094 2611.351 2606.692 2599.377 2592.766 2589.344 2581.261 2575.114 2568.98 2563.663 2557.889 2555.544 2555.502 2552.977 2557.73 2552.397 2549.233 2546.672 2546.775 2545.513 2542.576 2542.539 2533.238 2534.528 2535.302 2536.786 2535.78 2535.739 2528.87 2528.829 2523.684 2527.213 2526.975 2526.237 2518.484 2519.114 2513.701 2510.977 2507.393 2504.968 2500.185 2491.132 2492.339 2489.853 2486.317 2482.436 2483.692 2479.646 2481.285 2469.076 2475.492 2471.542 2471.013 2465.763 2464.904 2460.605 2459.555 2457.203 2450.462 2446.572 2443.196 2447.742 2440.456 2441.067 2432.489 2431.913 2422.08 2423.418 2428.887 2434.065 2433.182 2435.376 2434.972 2431.8 2436.101 2432.669 2430.771 2429.739 2430.36 2426.979 2426.203 2424.489 2426.515 2425.404 2433.624 2433.633 2438.546 2439.822 2438.124 2437.609 2438.237 2436.547 2433.213 2432.322 2425.732 2428.187 2427.168 2431.882 2434.114 2431.114 2433.325 2432.122 2429.034 2428.929 2426.672 2423.645 2418.669 2411.386 2409.33 2403.331 2391.269 2386.072
-9999 -9999 -9999 -9999 -9999 -9999 -9999 -9999 -9999 -9999 -9999 -9999 -9999 -9999 -9999 -9999 -9999 -9999 -9999 -9999 2856.854 2851.974 2843.486 2827.795 2808.674 2791.262 2782.429 2769.052 2752.344 2743.009 2730.377 2718.282 2708.483 2700.219 2681.365 2649.635 2638.871 2626.994 2616.925 2608.825 2598.843 2595.011 2589.738 2581.627 2579.043 2576.839 2566.282 2562.044 2559.176 2558.359 2554.44 2548.666 2549.849 2549.782 2543.032 2544.408 2544.332 2540.868 2537.245 2535.791 2530.661 2531.012 2527.147 2527.356 2528.365 2529.744 2531.033 2523.997 2522.207 2522.623 2528.371 2520.153 2519.609 2513.955 2510.652 2512.653 2501.522 2501.515 2499.009 2488.205 2489.254 2485.546 2483.575 2478.905 2479.58 2475.965 2474.254 2472.602 2468.201 2471.47 2464.565 2466.184 2454.627 2455.881 2451.851 2450.379 2448.621 2448.195 2441.172 2440.629 2435.255 2433.363 2431.824 2428.309 2423.423 2428.93 2428.948 2428.395 2438.969 2431.582 2434.029 2436.036 2433.998 2431.758 2433.664 2429.274 2430.133 2426.998 2423.413 2421.161 2421.366 2425.34 2426.853 2430.949 2437.273 2440.958 2439.265 2442.759 2436.132 2436.313 2434.164 2430.752 2430.523 2428.242 2428.665 2431.565 2432.261 2439.752 2435.124 2429.671 2427.427 2429.966 2427.608 2429.438 2417.591 2413.518 2409.485 2398.909 2395.719 2386.548
-9999 -9999 -9999 -9999 -9999 -9999 -9999 -9999 -9999 -9999 -9999 -9999 -9999 -9999 -9999 -9999 -9999 -9999 -9999 -9999 2854.406 2851.836 2845.174 2825.528 2811.727 2796.616 2785.246 2767.099 2752.024 2743.091 2728.1 2716.641 2708.705 2691.052 2678.72 2644.001 2634.006 2625.476 2615.161 2606.691 2595.194 2591.245 2585.168 2577.27 2577.592 2568.617 2565.621 2559.716 2556.96 2552.145 2550.138 2545.453 2540.821 2538.415 2540.185 2536.374 2540.523 2539.005 2537.875 2532.038 2531.909 2527.074 2524.067 2519.839 2527.301 2526.296 2524.284 2521.846 2524.161 2523.046 2516.289 2516.299 2511.125 2509.29 2507.639 2505.459 2499.233 2498.388 2490.425 2487.779 2480.844 2478.155 2481.493 2479.965 2470.734 2468.286 2467.933 2466.316 2464.889 2464.968 2461.202 2461.207 2457.035 2455.768 2455.15 2448.501 2446.306 2443.354 2439.01 2441.671 2435.879 2434.248 2428.599 2429.302 2424.615 2425.976 2432.38 2431.347 2434.775 2435.387 2431.803 2432.387 2428.375 2436.431 2431.429 2429.931 2427.988 2421.917 2425.135 2421.46 2424.375 2424.244 2429.876 2426.946 2433.965 2434.295 2440.314 2437.492 2442.81 2440.101 2437.346 2431.397 2429.368 2431.445 2428.145 2433.569 2436.125 2436.887 2432.634 2427.946 2426.712 2428.843 2429.261 2422.142 2420.023 2408.685 2406.627 2395.666 2389.575 2382.057
-9999 -9999 -9999 -9999 -9999 -9999 -9999 -9999 -9999 -9999 -9999 -9999 -9999 -9999 -9999 -9999 -9999 -9999 -9999 -9999 2857.458 2848.1 2841.34 2824.483 2806.007 2794.606 2780.777 2759.376 2749.292 2740.379 2730.893 2715.662 2704.201 2693.543 2674.885 2645.135 2627.086 2619.098 2607.534 2600.365 2594.727 2584.141 2578.051 2576.635 2572.305 2563.666 2559.569 2557.689 2550.48 2548.566 2545.848 2537.941 2541.735 2535.47 2528.573 2535.938 2537.372 2531.038 2533.386 2533.002 2528.047 2527.128 2519.38 2520.342 2519.271 2525.728 2524.193 2524.25 2519.302 2519.147 2515.094 2512.548 2501.384 2501.697 2496.833 2500.246 2495.468 2490.071 2488.324 2486.776 2478.09 2470.308 2471.7 2468.47 2466.969 2469.763 2468.631 2462.697 2462.679 2460.438 2456.576 2461.558 2457.629 2451.235 2447.798 2444.576 2440.751 2441.175 2435.949 2430.288 2433.387 2429.41 2425.707 2424.791 2422.841 2428.952 2425.956 2430.212 2431.392 2429.711 2434.495 2425.963 2432.27 2433.682 2427.386 2425.48 2424.63 2425.217 2423.153 2424.431 2424.505 2425.183 2428.077 2423.756 2433.672 2440.762 2438.431 2444.766 2441.051 2439.637 2433.955 2434.864 2430.717 2434.826 2432.135 2433.117 2437.48 2431.533 2426.185 2426.872 2426.21 2428.499 2420.567 2417.07 2410.071 2409.512 2401.653 2392.007 2386.668 2380.405
-9999 -9999 -9999 -9999 -9999 -9999 -9999 -9999 -9999 -9999 -9999 -9999 -9999 -9999 -9999 -9999 -9999 -9999 -9999 -9999 2851.151 2846.481 2837.087 2818.131 2801.77 2790.968 2776.636 2762.663 2750.318 2735.698 2727.182 2717.08 2703.858 2690.035 2665.659 2640.187 2626.424 2613.392 2605.118 2598.621 2591.324 2582.933 2576.928 2568.692 2565.025 2564.288 2553.669 2550.99 2548.338 2546.672 2543.952 2543.307 2536.728 2527.666 2531.012 2527.827 2529.917 2529.579 2529.033 2528.809 2525.827 2520.963 2519.705 2515.814 2519.575 2524.499 2519.828 2516.259 2516.988 2513.099 2507.584 2502.653 2500.306 2498.132 2493.019 2488.905 2484.83 2487.472 2485.926 2479.989 2471.623 2470.364 2465.55 2463.882 2467.344 2464.6 2458.913 2457.696 2459.868 2457.357 2455.765 2453.176 2454.347 2451.385 2446.315 2442.758 2439.733 2434.573 2428.071 2430.441 2431.528 2427.504 2429.248 2424.591 2422.676 2420.844 2423.623 2428.214 2430.422 2434.819 2426.358 2428.807 2431.06 2431.37 2424.94 2423.063 2420.964 2414.375 2419.145 2423.228 2423.837 2423.36 2425.975 2429.433 2430.629 2435.22 2437.11 2442.459 2442.223 2440.606 2442.275 2438.966 2433.046 2430.897 2432.167 2434.073 2432.445 2427.969 2429.947 2429.862 2423.098 2421.468 2417.796 2413.631 2406.048 2402.187 2395.889 2391.517 2384.806 2380.406
-9999 -9999 -9999 -9999 -9999 -9999 -9999 -9999 -9999 -9999 -9999 -9999 -9999 -9999 -9999 -9999 -9999 -9999 -9999 2850.213 2851.26 2848.506 2838.101 2818.415 2799.425 2787.941 2772.631 2754.461 2747.788 2732.691 2718.117 2708.933 2702.749 2694.09 2662.648 2640.03 2619.575 2608.877 2599.943 2590.995 2589.719 2579.449 2575.413 2572.006 2560.4 2561.483 2555.599 2548.533 2545.746 2538.949 2534.339 2537.551 2534.274 2525.837 2521.949 2526.209 2526.726 2519.754 2523.573 2526.479 2520.621 2520.089 2519.774 2513.392 2517.225 2511.537 2511.939 2512.232 2508.243 2506.509 2502.012 2501.865 2499.874 2491.884 2489.489 2484.449 2480.695 2477.22 2482.76 2472.301 2467.057 2467.285 2462.353 2462.59 2458.527 2456.586 2458.572 2455.088 2453.019 2450.763 2449.643 2450.632 2446.662 2441.16 2440.323 2436.972 2438.939 2436.825 2431.238 2428.679 2426.927 2431.603 2424.269 2426.965 2420.737 2423.719 2425.098 2425.463 2426.265 2430.017 2423.783 2430.978 2428.696 2428.026 2428.383 2421.099 2419.26 2417.633 2421.687 2422.416 2426.391 2422.664 2420.905 2423.063 2430.502 2433.189 2434.585 2438.337 2439.332 2435.026 2437.804 2437.817 2432.823 2429.746 2434.711 2429.854 2431.578 2427.091 2431.911 2426.827 2422.179 2423.74 2414.854 2413.725 2405.578 2406.278 2402.736 2392.709 2383.297 2370.912
-9999 -9999 -9999 -9999 -9999 -9999 -9999 -9999 -9999 -9999 -9999 -9999 -9999 -9999 -9999 -9999 -9999 -9999 -9999 2843.501 2850.703 2841.873 2833.201 2813.902 2789.336 2772.092 2763.543 2750.443 2741.678 2730.632 2720.955 2712.444 2703.681 2685.617 2661.615 2629.428 2614.813 2605.519 2600.635 2592.222 2582.126 2580.986 2569.942 2567.982 2562.787 2553.398 2546.719 2546.614 2543.168 2535.846 2533.763 2536.921 2528.503 2528.546 2523.821 2521.375 2517.849 2518.692 2521.025 2520.651 2519.35 2519.893 2512.956 2515.534 2515.9 2512.173 2507.122 2507.899 2505.169 2501.815 2495.715 2492.092 2492.054 2482.817 2482.671 2473.076 2470.909 2476.017 2468.211 2464.788 2460.009 2457.904 2457.759 2461.955 2457.142 2454.168 2453.885 2449.605 2446.792 2447.106 2441.048 2439.245 2439.364 2441.916 2436.387 2434.799 2432.566 2430.985 2427.994 2428.681 2429.083 2421.051 2424.97 2421.356 2420.942 2421.756 2425.843 2422.437 2428.231 2425.945 2429.938 2424.461 2429.073 2426.259 2422.534 2419.167 2416.61 2418.407 2420.732 2422.86 2423.029 2426.567 2423.98 2425.023 2430.72 2431.263 2429.451 2440.742 2439 2440.613 2441.123 2437.512 2437.444 2433.582 2431.93 2435.691 2431.57 2429.602 2430.851 2431.927 2427.365 2425.323 2419.712 2411.83 2407.44 2402.063 2395.25 2390.377 2377.119 2376.998
-9999 -9999 -9999 -9999 -9999 -9999 -9999 -9999 -9999 -9999 -9999 -9999 -9999 -9999 -9999 -9999 -9999 -9999 -9999 2848.431 2853.28 2841.593 2828.161 2807.431 2785.721 2771.314 2757.706 2742.48 2740.1 2724.534 2716.779 2703.972 2697.586 2672.86 2660.541 2626.299 2616.588 2606.228 2595.63 2590.923 2581.88 2578.583 2572.284 2564.628 2558.792 2552.852 2543.939 2541.774 2537.948 2532.556 2532.846 2526.717 2523.592 2522.301 2524.189 2518.671 2518.072 2516.535 2518.33 2513.891 2512.53 2515.887 2512.04 2508.174 2508.842 2507.199 2503.494 2504.506 2497.711 2494.069 2491.806 2485.491 2484.349 2476.406 2480.587 2468.868 2468.431 2467.757 2468.004 2460.007 2464.749 2458.463 2458.279 2454.081 2455.004 2454.019 2448.008 2449.682 2447.576 2444.412 2443.448 2436.547 2433.326 2437.648 2435.258 2432.18 2433.375 2431.213 2431.549 2425.92 2423.632 2425.192 2422.515 2426.753 2419.637 2424.806 2425 2425.91 2425.939 2427.306 2426.565 2427.077 2424.737 2423.378 2421.895 2420.563 2416.312 2417.603 2424.695 2423.569 2422.671 2424.812 2421.064 2425.969 2433.01 2427.392 2432.274 2436.011 2436.646 2438.994 2436.079 2437.781 2435.041 2439.127 2433.104 2433.216 2433.05 2437.655 2431.474 2428.422 2427.594 2422.129 2420.8 2417.388 2411.343 2398.857 2399.259 2392.634 2382.812 2376.563
-9999 -9999 -9999 -9999 -9999 -9999 -9999 -9999 -9999 -9999 -9999 -9999 -9999 -9999 -9999 -9999 -9999 -9999 -9999 2849.554 2848.347 2837.417 2820.027 2801.231 2781.862 2766.93 2749.588 2746.074 2731.844 2720.855 2713.862 2704.622 2688.651 2675.385 2658.12 2628.918 2616.586 2599.261 2595.51 2588.643 2581.92 2571.655 2564.482 2562.751 2553.999 2552.65 2542.435 2537.391 2531.06 2528.941 2528.594 2523.296 2521.401 2517.817 2514.775 2513.543 2513.929 2513.577 2510.988 2514.745 2511.842 2514.209 2509.358 2507.559 2500.799 2497.657 2495.035 2487.963 2488.143 2485.995 2487.655 2479.949 2477.916 2478.296 2476.314 2472.473 2469.763 2465.058 2467.524 2459.315 2456.647 2452.842 2451.951 2445.61 2449.494 2446.419 2447.646 2444.254 2442.137 2441.086 2438.979 2437.96 2432.217 2433.521 2436.291 2428.02 2429.606 2428.201 2425.538 2428.324 2427.379 2426.107 2421.525 2424.69 2423.188 2420.876 2425.734 2422.484 2426.121 2424.751 2426.51 2424.678 2424.004 2421.979 2416.942 2414.908 2415.922 2417.786 2420.655 2420.689 2421.816 2420.766 2426.016 2428.134 2425.907 2427.244 2428.685 2438.137 2438.292 2439.433 2440.531 2437.01 2437.523 2439.229 2435.263 2431.365 2437.954 2433.103 2434.114 2428.969 2428.834 2420.409 2415.225 2411.478 2407.952 2403.545 2399.264 2390.984 2386.069 2379.087
-9999 -9999 -9999 -9999 -9999 -9999 -9999 -9999 -9999 -9999 -9999 -9999 -9999 -9999 -9999 -9999 -9999 -9999 -9999 2845.854 2842.499 2836.438 2818.849 2797.055 2781.826 2765.957 2743.231 2739.517 2726.44 2714.979 2704.005 2693.444 2684.467 2669.386 2657.876 2634.469 2616.623 2595.587 2589.848 2585.804 2578.695 2571.835 2561.925 2559.724 2556.613 2550.98 2545.382 2540.104 2531.731 2527.879 2521.532 2514.604 2518.416 2517.145 2513.553 2511.076 2508.451 2506.218 2506.787 2502.142 2500.588 2503.167 2502.552 2502.517 2497.545 2495.64 2493.852 2490.088 2486.177 2483.631 2478.672 2479.158 2475.063 2474.973 2475.018 2469.664 2466.5 2461.838 2459.559 2455.526 2452.866 2449.641 2453.166 2444.861 2449.595 2442.427 2442.484 2441.235 2431.526 2433.105 2433.585 2436.328 2432.248 2429.197 2425.553 2427.783 2428.744 2427.304 2423.489 2423.088 2424.222 2423.663 2420.995 2420.428 2418.938 2425.232 2420.368 2420.862 2430.506 2425.763 2423.779 2429.065 2422.715 2421.121 2417.112 2419.303 2414.633 2418.115 2422.563 2419.544 2417.472 2421.177 2424.783 2424.026 2425.466 2429.142 2431.934 2434.064 2431.366 2432.658 2437.64 2435.29 2435.153 2433.239 2432.503 2435.776 2434.067 2433.821 2434.019 2428.985 2427.168 2421.346 2415.451 2411.951 2412.29 2401.932 2398.552 2395.305 2385.558 2380.72
-9999 -9999 -9999 -9999 -9999 -9999 -9999 -9999 -9999 -9999 -9999 -9999 -9999 -9999 -9999 -9999 -9999 -9999 -9999 2849.921 2848.883 2839.539 2814.386 2792.583 2779.625 2755.028 2741.49 2730.177 2721.688 2709.61 2695.065 2688.708 2677.17 2666.19 2650.312 2627.659 2618.518 2593.149 2587.884 2581.896 2574.16 2571.584 2563.861 2557.72 2556.26 2547.467 2545.101 2536.496 2537.763 2530.965 2520.789 2517.196 2511.853 2507.782 2507.303 2507.654 2502.826 2500.719 2498.469 2498.108 2497.378 2492.147 2494.878 2490.111 2490.99 2489.438 2487.16 2485.709 2484.158 2480.507 2482.241 2480.551 2475.177 2476.161 2472.5 2473.239 2461.321 2464.844 2458.156 2451.899 2446.792 2447.474 2442.943 2446.378 2442.7 2442.598 2442.714 2433.275 2430.217 2428.731 2427.623 2426.65 2425.568 2429.631 2424.631 2424.288 2424.421 2425.818 2423.156 2425.616 2420.419 2418.255 2415.099 2418.522 2417.456 2415.091 2421.746 2423.654 2427.274 2423.863 2423.893 2418.644 2423.315 2416.539 2413.108 2415.876 2419.655 2421.39 2417.796 2423.568 2418.707 2424.576 2428.949 2427.997 2424.67 2421.874 2430.229 2433.21 2430.069 2434.161 2436.152 2437.297 2436.704 2434.612 2432.51 2431.262 2437.691 2433.35 2429.042 2426.728 2424.457 2422.243 2418.094 2410.976 2410.875 2403.591 2399.311 2394.927 2389.04 2383.344
-9999 -9999 -9999 -9999 -9999 -9999 -9999 -9999 -9999 -9999 -9999 -9999 -9999 -9999 -9999 -9999 -9999 -9999 2845.019 2842.629 2845.163 2834.067 2802.653 2789.344 2771.155 2750.044 2732.574 2722.702 2710.343 2706.142 2695.841 2681.664 2670.114 2660.993 2646.823 2623.693 2608.16 2592.587 2582.99 2580.151 2575.023 2564.601 2563.867 2552.616 2549.795 2545.932 2539.597 2537.075 2528.946 2522.106 2519.072 2514.657 2508.609 2510.967 2507.594 2502.042 2498.814 2494.801 2493.594 2489.933 2491.725 2484.064 2484.96 2483.598 2480.943 2483.001 2478.96 2476.94 2472.824 2474.598 2474.212 2477.626 2471.603 2470.418 2468.652 2464.583 2458.082 2454.276 2451.718 2451.807 2450.378 2442.874 2438.071 2439.235 2443.027 2442.867 2435.133 2433.934 2434.012 2430.266 2425.543 2429.621 2421.041 2419.841 2422.555 2421.027 2426.251 2422.794 2423.656 2420.096 2417.057 2418.402 2417.682 2413.277 2415.545 2422.332 2418.375 2416.607 2421.963 2420.835 2419.267 2418.958 2421.057 2418.812 2410.971 2417.527 2418.817 2418.669 2422.984 2424.868 2425.079 2422.632 2419.681 2422.46 2422.719 2423.745 2426.092 2431.239 2431.699 2434.864 2430.566 2433.98 2433.937 2433.413 2428.817 2438.241 2431.858 2427.485 2430.392 2427.27 2422.247 2418.571 2415.167 2414.486 2412.224 2404.613 2403.86 2396.091 2396.062 2386.747
-9999 -9999 -9999 -9999 -9999 -9999 -9999 -9999 -9999 -9999 -9999 -9999 -9999 -9999 -9999 -9999 -9999 -9999 2843.24 2848.373 2842.384 2822.094 2794.233 2785.652 2768.384 2749 2729.531 2720.358 2706.8 2694.341 2683.482 2681.558 2667.944 2651.084 2632.242 2621.839 2602.333 2590.638 2583.296 2579.398 2573.755 2567.242 2558.91 2550.651 2549.499 2546.212 2538.892 2530.615 2526.594 2518.85 2515.276 2514.606 2505.34 2502.135 2501.116 2502.281 2495.579 2490.228 2490.688 2488.951 2484.976 2484.529 2478.374 2479.572 2477.133 2474.351 2470.687 2469.533 2467.203 2469.583 2470.076 2470.627 2467.374 2464.256 2461.236 2462.803 2453.152 2456.575 2452.09 2449.682 2441.882 2438.919 2431.845 2434.782 2433.995 2435.43 2431.81 2432.135 2429.055 2421.272 2424.701 2420.55 2423.09 2414.846 2417.912 2421.131 2417.567 2423.212 2419.804 2417.08 2417.46 2418.506 2414.868 2414.425 2414.041 2418.191 2418.198 2417.96 2420.785 2416.677 2415.403 2418.694 2417.201 2418.522 2413.105 2417.477 2417.255 2417.648 2419.5 2422.068 2421.392 2416.341 2420.274 2421.066 2421.516 2420.066 2425.214 2426.013 2430.036 2427.965 2429.428 2432.518 2429.572 2428.293 2432.055 2434.57 2434.885 2426.654 2430.224 2423.489 2420.672 2419 2416.212 2408.309 2407.777 2400.645 2401.59 2400.466 2392.692 2386.094
-9999 -9999 -9999 -9999 -9999 -9999 -9999 -9999 -9999 -9999 -9999 -9999 -9999 -9999 -9999 -9999 -9999 -9999 2841.488 2839.881 2830.182 2805.183 2786.21 2777.688 2757.145 2748.438 2731.272 2715.522 2704.422 2690.624 2676.989 2672.914 2658 2644.231 2627.807 2624.142 2597.478 2588.004 2585.218 2576.083 2567.972 2566.931 2560.781 2555.393 2549.277 2541.83 2536.525 2529.512 2524.316 2515.989 2512.573 2514.5 2503.086 2499.997 2494.786 2493.629 2496.756 2492.949 2488.156 2485.913 2482.489 2480.972 2475.507 2477.656 2475.835 2472.324 2470.742 2470.032 2464.064 2465.02 2458.592 2454.928 2454.866 2455.161 2454.675 2454.187 2450.884 2448.677 2443.322 2440.179 2435.443 2433.412 2430.765 2422.854 2426.88 2431.568 2424.232 2423.364 2421.266 2427.104 2420.387 2416.98 2413.289 2412.85 2412.864 2416.618 2418.56 2419.737 2415.887 2417.483 2415.56 2413.713 2410.94 2413.427 2414.494 2416.233 2413.322 2418.366 2416.75 2417.565 2417.533 2418.731 2412.136 2415.526 2414.089 2417.525 2418.308 2418.486 2426.467 2420.861 2423.231 2417.958 2418.404 2422.717 2416.369 2418.66 2420.833 2420.701 2424.054 2429.593 2425.644 2431.017 2427.173 2429.344 2429.474 2435.681 2431.066 2427.241 2423.43 2419.725 2415.837 2414.265 2409.253 2403.35 2405.289 2403.795 2401.309 2396.462 2393.175 2390.907
-9999 -9999 -9999 -9999 -9999 -9999 -9999 -9999 -9999 -9999 -9999 -9999 -9999 -9999 -9999 -9999 -9999 2830.556 2841.174 2830.176 2817.944 2798.537 2785.528 2770.392 2751.683 2746.294 2724.788 2715.015 2701.238 2679.191 2674.072 2665.783 2653.433 2637.835 2626.888 2607.042 2590.914 2585.191 2582.562 2574.839 2571.794 2559.978 2557.766 2548.723 2544.376 2541.52 2534.9 2530.206 2523.148 2517.813 2507.847 2503.613 2503.385 2502.655 2497.237 2491.629 2493.707 2487.517 2487.114 2478.263 2481.998 2483.068 2481.392 2473.44 2465.565 2462.157 2465.662 2462.61 2461.447 2455.283 2457.992 2449.172 2447.005 2439.942 2442.051 2444.724 2441.332 2439.533 2438.336 2437.597 2435.251 2430.742 2426.768 2425.213 2420.787 2423.637 2418.946 2424.116 2422.204 2420.821 2418.757 2416.498 2412.625 2413.727 2411.635 2408.32 2415.177 2413.012 2412.832 2413.634 2414.636 2409.105 2409.156 2415.405 2418.724 2417.901 2417.587 2419.573 2415.586 2415.958 2417.897 2413.191 2417.011 2419.664 2421.687 2420.867 2418.832 2420.13 2420.756 2420.202 2420.955 2420.285 2423.962 2415.819 2419.719 2415.233 2418.601 2416.708 2420.037 2419.693 2424.159 2428.453 2422.066 2425.731 2426.947 2428.854 2433.439 2423.018 2417.436 2414.304 2410.586 2411.728 2411.009 2408.101 2406.415 2404.981 2401.687 2400.218 2391.564 2385.691
-9999 -9999 -9999 -9999 -9999 -9999 -9999 -9999 -9999 -9999 -9999 -9999 -9999 -9999 -9999 -9999 -9999 2825.05 2834.993 2823.176 2805.7 2792.913 2777.655 2760.224 2755.33 2742.527 2724.601 2706.132 2696.312 2685.063 2674.903 2662.175 2649.78 2640.189 2617.82 2598.162 2593.137 2585.8 2576.933 2572.839 2567.368 2558.439 2553.039 2554.029 2543.132 2541.242 2529.831 2525.696 2521.357 2515.738 2510.52 2501.421 2503.213 2501.371 2495.221 2488.606 2490.758 2484.254 2482.062 2478.074 2481.406 2476.767 2475.209 2472.689 2468.997 2458.701 2460.037 2455.245 2456.531 2448.995 2451.062 2445.932 2434.91 2438.444 2433.102 2432.847 2435.605 2428.52 2426.438 2424.768 2426.641 2422.807 2422.478 2421.448 2418.168 2420.012 2415.441 2416.76 2418.908 2421.344 2419.998 2413.276 2406.957 2406.289 2409.302 2411.101 2413.712 2415.431 2415.806 2414.831 2412.233 2413.167 2411.318 2416.219 2416.219 2418.475 2418.778 2415.297 2423.018 2419.727 2420.385 2420.109 2418.648 2416.571 2416.496 2415.524 2420.526 2419.194 2418.641 2421.879 2415.709 2423.849 2417.597 2420.996 2410.922 2413.133 2410.317 2414.192 2412.477 2415.609 2418.146 2419.556 2420.88 2419.7 2420.011 2422.816 2428.457 2420.939 2416.113 2409.378 2411.56 2410.483 2407.549 2413.294 2406.236 2409.334 2401.704 2396.506 2389.974 2386.549
-9999 -9999 -9999 -9999 -9999 -9999 -9999 -9999 -9999 -9999 -9999 -9999 -9999 -9999 -9999 -9999 -9999 2823.257 2830.172 2812.889 2801.688 2785.936 2767.705 2757.205 2751.036 2740.299 2720.46 2706.234 2694.942 2680.878 2665.9 2654.381 2641.771 2632.384 2622.92 2606.652 2592.408 2590.687 2583.167 2574.072 2570.021 2558.951 2556.732 2553.896 2546.304 2537.616 2529.002 2526.463 2521.898 2513.915 2507.804 2505.988 2500.742 2493.724 2491.411 2489.211 2489.054 2487.72 2477.005 2478.991 2474.077 2476.918 2471.362 2464.781 2462.72 2460.156 2462.315 2452.02 2446.212 2449.501 2445.114 2439.695 2437.452 2430.716 2431.24 2426.921 2434.306 2425.123 2422.786 2421.887 2419.278 2422.2 2416.803 2420.022 2422.436 2412.445 2414.514 2417.322 2415.299 2409.702 2413.374 2408.289 2409.594 2408.663 2405.368 2409.442 2407.433 2411.839 2411.518 2414.43 2415.572 2411.18 2412.299 2411.98 2415.428 2421.522 2415.787 2419.497 2422.097 2424.73 2423.614 2425.752 2420.704 2415.734 2417.548 2412.335 2414.468 2421.597 2422.737 2418.17 2420.512 2417.378 2419.112 2412.432 2415.915 2415.942 2409.581 2412.627 2406.678 2414.486 2415.492 2415.288 2419.26 2421.113 2419.465 2423.213 2424.305 2420.24 2415.249 2409.419 2409.602 2410.218 2412.127 2409.18 2405.451 2406.279 2401.036 2394.2 2387.038 2387.598
-9999 -9999 -9999 -9999 -9999 -9999 -9999 -9999 -9999 -9999 -9999 -9999 -9999 -9999 -9999 -9999 -9999 2822.098 2825.059 2805.444 2793.467 2775.002 2760.802 2758.21 2744.25 2732.234 2714.941 2698.792 2688.327 2676.408 2656.562 2645.922 2638.991 2625.124 2607.448 2601.595 2597.355 2586.733 2581.765 2577.815 2571.537 2556.003 2556.369 2555.863 2542.773 2536.942 2530.385 2525.627 2518.827 2512.697 2508.561 2505.733 2501.427 2499.083 2491.927 2490.899 2482.874 2486.827 2482.774 2484.677 2476.462 2473.343 2470.184 2465.691 2462.625 2460.835 2455.412 2452.685 2451.042 2446.671 2440.52 2440.279 2437.301 2429.302 2426.923 2426.873 2420.469 2423.241 2417.974 2421.64 2417.834 2414.857 2416.578 2416.138 2414.197 2414.868 2413.814 2412.663 2416.57 2410.282 2412.802 2410.054 2410.556 2405.282 2407.109 2410.056 2408.549 2410.531 2411.68 2411.687 2414.159 2412.337 2412.239 2415.893 2420.731 2420.029 2421.791 2426.325 2423.865 2423.339 2426.242 2421.287 2421.697 2417.882 2415.997 2418.771 2419.134 2421.337 2419.194 2421.867 2416.91 2411.133 2416.597 2414.493 2410.041 2409.448 2407.004 2409.033 2408 2410.297 2415.354 2415.944 2419.075 2410.458 2415.634 2423.642 2419.2 2414.018 2412.215 2406.514 2409 2409.861 2410.23 2409.958 2405.328 2401.735 2397.151 2394.515 2389.095 2382.193
-9999 -9999 -9999 -9999 -9999 -9999 -9999 -9999 -9999 -9999 -9999 -9999 -9999 -9999 -9999 -9999 -9999 2820.731 2822.322 2807.898 2788.417 2769.102 2765.179 2754.447 2740.242 2724.232 2712.28 2693.799 2686.699 2668.751 2647.549 2636.821 2630.012 2621.742 2605.74 2595.598 2595.064 2585.381 2577.764 2572.232 2570.394 2561.013 2551.217 2549.677 2545.42 2533.076 2532.495 2525.71 2514.652 2510.146 2512.183 2505.689 2496.779 2496.03 2492.049 2493.277 2483.043 2483.216 2478.294 2479.577 2475.536 2471.304 2471.282 2464.077 2464.436 2458.355 2457.717 2447.255 2447.908 2446.098 2440.215 2431.82 2435.143 2428.348 2427.947 2425.438 2424.72 2421.253 2417.631 2418.617 2414.136 2416.594 2411.812 2410.02 2415.001 2416.883 2411.429 2411 2410.624 2406.731 2410.27 2404.929 2405.972 2405.421 2404.557 2406.816 2407.055 2409.934 2408.448 2408.418 2407.649 2412.002 2415.906 2417.293 2415.424 2425.138 2425.143 2430.708 2427.423 2432.04 2424.878 2425.819 2421.667 2416.308 2418.078 2418.731 2421.489 2418.288 2418.883 2419.905 2420.142 2411.584 2412.782 2413.295 2414.115 2412.346 2411.603 2409.156 2407.276 2407.773 2409.615 2407.898 2412.26 2412.378 2416.001 2414.791 2420.859 2413.718 2411.93 2406.643 2411.257 2409.277 2411.722 2408.939 2400.524 2397.719 2394.138 2388.051 2388.08 2378.823
-9999 -9999 -9999 -9999 -9999 -9999 -9999 -9999 -9999 -9999 -9999 -9999 -9999 -9999 -9999 -9999 -9999 2815.334 2814.79 2803.601 2780.871 2772.614 2762.791 2753.431 2735.719 2720.71 2699.585 2680.627 2677.525 2649.736 2640.661 2633.778 2630.294 2614.906 2601.332 2597.376 2589.467 2583.948 2578.962 2570.813 2565.951 2558.043 2554.4 2545.26 2539.699 2533.616 2528.978 2527.169 2516.06 2514.734 2506.339 2502.717 2501.903 2496.917 2495.155 2493.148 2486.532 2486.941 2486.723 2481.058 2473.687 2474.16 2469.172 2466.61 2461.772 2458.581 2452.035 2451.535 2446.975 2439.225 2436.555 2438.543 2435.959 2428.099 2422.733 2422.99 2421.308 2418.648 2418.147 2415.241 2414.017 2414.607 2409.979 2412.436 2413.735 2413.245 2407.514 2405.546 2409.633 2405.557 2406.036 2406.703 2405.863 2404.478 2404.444 2406.435 2409 2411.789 2405.899 2409.189 2412.053 2417.692 2414.768 2420.165 2420.167 2425.491 2427.897 2431.597 2426.407 2426.281 2425.031 2420.861 2416.761 2416.222 2416.209 2421.823 2418.088 2416.813 2416.48 2421.999 2417.73 2415.074 2412.052 2413.665 2411.507 2405.998 2410.375 2409.524 2409.676 2406.648 2408.164 2410.299 2404.596 2410.963 2414.209 2411.291 2413.437 2409.734 2408.21 2403.185 2409.261 2407.45 2405.284 2406.012 2397.515 2391.492 2390.008 2388.948 2385.672 2379.051
-9999 -9999 -9999 -9999 -9999 -9999 -9999 -9999 -9999 -9999 -9999 -9999 -9999 -9999 -9999 -9999 -9999 2810.391 2806.448 2789.133 2771.519 2769.016 2757.186 2750.425 2725.006 2710.881 2690.678 2669.961 2658.581 2644.886 2636.313 2629.878 2623.971 2607.943 2600.911 2593.233 2583.508 2579.276 2578.055 2566.746 2564.592 2556.765 2545.088 2543.631 2538.068 2534.536 2530.208 2527.25 2515.428 2512.683 2508.392 2504.434 2500.097 2495.919 2490.315 2488.897 2494.269 2488.281 2483.988 2482.375 2479.243 2474.942 2466.623 2459.924 2456.721 2456.544 2452.14 2446.51 2443.317 2440.98 2437.454 2430.698 2425.803 2429.386 2424.547 2418.093 2415.75 2413.963 2416.079 2410.197 2411.818 2414.985 2412.33 2413.433 2413.777 2410.586 2407.17 2407.034 2404.498 2410.308 2406.499 2405.26 2402.272 2402.946 2408.722 2404.347 2404.222 2404.884 2408.993 2413.563 2411.879 2415.256 2417.668 2420.641 2420.963 2424.341 2425.478 2426.294 2427.245 2427.985 2421.996 2421.124 2416.15 2414.339 2412.779 2416.933 2420.424 2419.453 2415.751 2413.351 2414.566 2414.378 2410.142 2407.65 2409.585 2408.034 2410.207 2406.098 2410.248 2411.507 2412.429 2408.522 2412.181 2412.848 2407.921 2406.224 2406.466 2405.99 2408.042 2406.237 2400.878 2402.098 2400.552 2396.04 2396.766 2389.488 2387.206 2380.448 2377.288 2382.244
-9999 -9999 -9999 -9999 -9999 -9999 -9999 -9999 -9999 -9999 -9999 -9999 -9999 -9999 -9999 -9999 2803.48 2813.178 2803.559 2780.96 2767.123 2761.04 2756.317 2739.841 2724.203 2710.476 2690.422 2660.185 2652.882 2643.131 2633.245 2621.484 2615.285 2605.16 2597.721 2589.727 2582.917 2579.642 2567.606 2566.11 2558.299 2556.519 2545.435 2546.507 2540.63 2532.993 2524.269 2519.278 2519.33 2510.466 2507.57 2503.767 2499.75 2495.841 2489.841 2489.917 2486.685 2485.66 2481.552 2480.594 2473.316 2469.871 2466.943 2462.961 2459.748 2450.411 2450.916 2444.799 2437.213 2437.644 2435.486 2434.885 2427.244 2426.187 2422.927 2418.341 2416.923 2412.951 2412.768 2417.464 2413.169 2410.421 2411.195 2415.297 2415.742 2417.86 2411.615 2413.309 2407.354 2406.98 2407.828 2403.024 2403.809 2402.726 2405.907 2404.609 2410.091 2408.196 2410.703 2411.912 2413.337 2415.278 2418.642 2422.457 2420.159 2421.59 2423.781 2422.149 2423.865 2423.001 2424.612 2419.244 2412.896 2415.987 2417.358 2417.125 2419.907 2417.719 2419.291 2414.917 2413.441 2411.544 2408.994 2412.288 2411.028 2408.922 2411.197 2408.211 2413.01 2417.676 2415.201 2412.555 2414.57 2408.669 2401.496 2407.675 2407.359 2408.232 2402.986 2402.268 2399.431 2396.022 2396.923 2387.628 2389.554 2385.079 2381.511 2382.003 2381.074 2381.563
-9999 -9999 -9999 -9999 -9999 -9999 -9999 -9999 -9999 -9999 -9999 -9999 -9999 -9999 -9999 -9999 2804.719 2807.686 2782.24 2771.106 2767.622 2752.568 2749.128 2732.273 2723.35 2700.298 2679.166 2656.144 2649.723 2641.094 2624.353 2618.316 2619.387 2604.735 2594.293 2590.06 2584.624 2576.209 2569.891 2563.895 2561.697 2553.994 2549.98 2539.01 2542.393 2532.979 2527.77 2523 2517.007 2513.603 2507.771 2507.016 2499.784 2501.99 2492.422 2495.978 2492.801 2486.256 2480.528 2478.388 2474.144 2470.004 2466.345 2458.477 2455.641 2452.998 2451.192 2445.096 2443.418 2438.474 2431.423 2434.402 2432.466 2423.368 2421.894 2418.114 2422 2417.208 2413.708 2415.13 2411.1 2413.281 2416.399 2414.821 2415.557 2413.742 2413.233 2409.434 2409.208 2405.294 2407.441 2403.756 2407.19 2407.973 2399.252 2405.459 2404.559 2409.757 2409.987 2413.226 2414.542 2417.996 2417.317 2416.22 2417.814 2418.259 2425.156 2426.07 2424.3 2420.925 2420.065 2416.688 2418.213 2415.996 2410.824 2417.326 2414.679 2418.104 2416.936 2419.798 2414.865 2415.919 2409.59 2408.509 2403.62 2410.556 2412.779 2414.145 2413.22 2420.049 2419.676 2414.883 2408.839 2406.769 2404.975 2403.8 2403.059 2399.212 2402.615 2401.512 2393.917 2392.123 2394.666 2388.641 2388.28 2384.323 2382.097 2380.143 2380.147 2374.657
-9999 -9999 -9999 -9999 -9999 -9999 -9999 -9999 -9999 -9999 -9999 -9999 -9999 -9999 -9999 -9999 2804.356 2797.499 2776.819 2773.763 2763.2 2738.239 2733.511 2720.565 2703.873 2686.073 2663.357 2657.418 2647.479 2637.505 2624.287 2620.637 2610.766 2600.604 2596.015 2586.832 2584.459 2574.337 2570.328 2563.682 2559.498 2554.444 2547.526 2544.668 2537.934 2532.389 2530.41 2517.508 2513.745 2509.719 2510.709 2499.31 2502.642 2499.698 2501.124 2489.464 2482.941 2485.928 2484.849 2477.839 2467.772 2465.66 2464.625 2459.516 2454.802 2450.469 2448.396 2441.741 2437.657 2436.922 2437.367 2429.316 2426.577 2425.5 2420.892 2418.232 2421.987 2414.183 2413.261 2415.576 2419.34 2417.572 2416.456 2418.183 2418.162 2414.999 2412.322 2413.89 2409.469 2409.635 2407.838 2407.124 2401.984 2405.281 2403.179 2405.533 2402.323 2405.028 2406.697 2412.926 2414.593 2415.789 2415.55 2415.813 2416.63 2418.979 2421.592 2416.508 2420.228 2422.494 2418.682 2417.231 2418.333 2412.884 2418.401 2415.701 2416.802 2418.004 2413.506 2415.384 2413.769 2408.712 2413.105 2414.27 2409.804 2413.923 2416.048 2420.09 2422.135 2414.288 2417.533 2415.122 2413.92 2407.078 2407.801 2406.383 2398.071 2402.737 2399.595 2391.071 2397.24 2391.607 2393.331 2383.125 2387.676 2386.068 2383.1 2380.866 2378.498 2378.272
-9999 -9999 -9999 -9999 -9999 -9999 -9999 -9999 -9999 -9999 -9999 -9999 -9999 -9999 -9999 -9999 2799.645 2783.897 2783.519 2772.673 2756.843 2732.828 2718.672 2709.187 2696.127 2673.927 2664.401 2653.964 2641.595 2631.515 2627.827 2615.372 2606.409 2598.707 2598.417 2584.741 2578.542 2570.996 2572.243 2560.709 2559.687 2553.349 2550.888 2543.825 2540.15 2532.825 2526.77 2522.728 2516.671 2513.251 2504.703 2511.324 2505.666 2501.889 2494.504 2490.848 2488.969 2483.082 2482.828 2474.015 2473.765 2465.062 2464.23 2459.334 2455.995 2451.025 2446.582 2442.594 2439.827 2437.443 2433.566 2428.259 2426.128 2423.08 2422.293 2423.811 2420.353 2417.324 2420.173 2420.822 2418.864 2421.592 2423.872 2419.274 2420.955 2416.155 2419.981 2410.842 2410.121 2410.423 2406.18 2403.665 2407.464 2404.839 2402.723 2403.818 2400.651 2406.215 2407.049 2410.662 2413.335 2415.934 2411.735 2415.603 2415.944 2413.974 2417.267 2419.644 2422.28 2420.638 2419.559 2418.42 2420.007 2417.859 2420.246 2419.496 2413.659 2418.638 2413.473 2412.046 2412.92 2409.661 2410.15 2414.306 2414.105 2413.903 2420.847 2417.175 2416.383 2417.644 2413.89 2417.611 2412.501 2406.835 2408.03 2406.583 2406.602 2400.147 2400.763 2396.564 2390.526 2396.144 2388.722 2391.804 2388.169 2385.482 2384.936 2379.596 2380.316 2374.013
-9999 -9999 -9999 -9999 -9999 -9999 -9999 -9999 -9999 -9999 -9999 -9999 -9999 -9999 -9999 -9999 2801.91 2786.807 2774.229 2768.921 2745.55 2726.834 2712.782 2705.488 2698.754 2679.323 2661.865 2649.573 2639.308 2631.099 2623.938 2613.623 2611.443 2600.503 2596.021 2584.658 2580.812 2570.486 2567.839 2560.835 2553.227 2554.654 2543.79 2541.729 2535.349 2531.441 2525.011 2519.372 2516.945 2510.114 2508.604 2509.208 2505.051 2496.644 2496.464 2493.818 2488.704 2484.16 2479.083 2477.024 2473.635 2463.187 2463.803 2456.333 2450.776 2454.511 2447.496 2442.373 2443.068 2438.77 2434.098 2429.366 2429.207 2427.946 2423.17 2418.983 2419.885 2421.203 2418.686 2418.341 2418.753 2423.571 2424.123 2422.435 2414.369 2418.711 2419.275 2415.5 2414.017 2408.754 2409.314 2408.468 2404.844 2405.684 2403.419 2400.703 2404.289 2405.466 2414.691 2408.563 2408.92 2411.526 2410.753 2412.887 2412.03 2413.906 2416.694 2413.339 2419.984 2415.24 2418.191 2416.89 2419.449 2414.722 2417.972 2418.385 2418.348 2414.384 2411.745 2414.82 2411.116 2412.225 2412.701 2416.302 2414.572 2419.917 2416.822 2416.021 2418.886 2418.464 2412.917 2411.471 2413.674 2412.597 2408.922 2405.677 2406.018 2406.939 2398.03 2397.197 2397.111 2390.276 2391.219 2391.551 2386.601 2386.554 2385.992 2380.738 2378.165 2371.44
-9999 -9999 -9999 -9999 -9999 -9999 -9999 -9999 -9999 -9999 -9999 -9999 -9999 -9999 -9999 2791.852 2798.336 2782.826 2780.14 2751.023 2743.808 2721.374 2713.238 2704.104 2690.413 2678.148 2665.861 2644.761 2632.937 2628.933 2624.64 2615.217 2607.913 2604.107 2588.905 2587.144 2579.069 2573.68 2567.565 2564.448 2556.033 2551.826 2549.827 2545.089 2541.687 2531.611 2525.258 2522.914 2519.707 2515.805 2511.205 2505.992 2498.367 2497.443 2495.67 2485.358 2490.996 2481.606 2479.458 2475.13 2471.823 2469.162 2464.062 2461.841 2453.935 2449.544 2447.686 2443.76 2442.738 2437.528 2433.652 2426.379 2428.829 2424.486 2425.887 2419.588 2421.095 2424.181 2421.302 2423.971 2425.435 2423.717 2420.032 2421.915 2420.869 2417.545 2418.294 2416.569 2408.92 2408.36 2412.508 2405.93 2406.532 2403.046 2408.165 2404.462 2406.996 2405.211 2405.527 2407.915 2405.641 2407.606 2407.796 2411.02 2410.42 2412.041 2411.199 2411.232 2409.748 2412.832 2416.965 2412.02 2417.822 2414.922 2417.815 2415.021 2416.576 2412.676 2414.312 2411.271 2414.842 2411.822 2414.722 2416.621 2412.398 2415.884 2417.523 2415.791 2415.02 2408.862 2414.822 2410.724 2407.511 2410.972 2404.256 2406.607 2403.182 2402.914 2400.827 2398.163 2394.151 2391.01 2387.52 2391.239 2392.637 2389.035 2385.629 2382.677 2375.786 2372.04
-9999 -9999 -9999 -9999 -9999 -9999 -9999 -9999 -9999 -9999 -9999 -9999 -9999 -9999 -9999 2797.788 2797.389 2787.015 2761.322 2746.011 2721.501 2717.534 2706.981 2698.874 2689.164 2672.904 2656.903 2638.085 2633.706 2625.665 2619.622 2612.012 2604.715 2600.012 2589.791 2584.223 2576.249 2568.057 2568.078 2563.752 2558.098 2548.783 2544.137 2543.826 2531.842 2532.616 2523.872 2518.625 2518 2514.343 2511.773 2510.229 2501.468 2497.812 2493.371 2493.018 2488.238 2485.976 2477.915 2479.878 2471.75 2464.799 2458.187 2458.112 2455.408 2450.872 2445.006 2448.11 2439.946 2436.304 2433.028 2427.625 2427.165 2426.143 2427.834 2427.341 2421.979 2420.949 2424.936 2423.262 2425.096 2424.645 2424.86 2430.324 2421.548 2422.323 2419.268 2419.321 2417.346 2412.489 2410.391 2405.932 2403.386 2407.026 2406.383 2408.442 2407.375 2403.762 2410.23 2403.402 2406.89 2401.825 2404.983 2403.833 2405.811 2409.704 2407.156 2410.085 2406.884 2408.453 2412.04 2414.304 2414.827 2413.377 2412.603 2414.923 2411.736 2413.154 2416.973 2413.729 2413.193 2412.086 2413.411 2417.466 2417.126 2420.38 2415.931 2418.892 2415.512 2414.046 2410.216 2409.049 2407.78 2410.578 2410.66 2408.557 2408.553 2400.595 2402.715 2398.639 2397.767 2394.674 2394.797 2392.963 2387.875 2389.567 2388.985 2384.042 2375.149 2375.31
-9999 -9999 -9999 -9999 -9999 -9999 -9999 -9999 -9999 -9999 -9999 -9999 -9999 -9999 2795.548 2797.496 2786.96 2761.069 2746.368 2725.44 2722.362 2711.804 2694.036 2677.674 2679.462 2663.989 2644.776 2639.012 2635.305 2625.037 2620.184 2611.581 2601.346 2597.372 2588.954 2586.938 2570.831 2571.219 2565.96 2558.618 2555.549 2553.022 2547.675 2541.221 2540.075 2530.974 2524.042 2522.087 2515.349 2516.146 2509.271 2506.64 2504.594 2498.964 2495.875 2491.443 2488.561 2485.413 2482.405 2476.761 2472.951 2466.297 2464.462 2460.38 2454.43 2446.817 2450.92 2443.77 2443.088 2433.052 2438.676 2433.283 2428.935 2424.208 2421.841 2426.358 2424.521 2431.005 2427.482 2430.245 2425.565 2429.943 2423.493 2426.07 2421.24 2415.719 2421.296 2416.543 2412.133 2417.983 2410.34 2411.483 2411.64 2410 2406.485 2408.569 2404.656 2407.775 2409.191 2403.904 2400.138 2404.806 2403.772 2406.986 2402.527 2406.522 2405.743 2408.284 2403.303 2407.88 2407.9 2409.341 2414.338 2412.502 2415.134 2413.886 2417.001 2412.095 2415.254 2411.411 2408.06 2412.985 2415.92 2416.173 2414.34 2416.147 2416.806 2416.476 2411.963 2410.005 2413.684 2412.58 2415.24 2412.569 2410.284 2411.409 2407.357 2400.885 2405.332 2401.667 2403.095 2401.421 2398.74 2393.27 2396.149 2392.817 2388.777 2383.22 2378.624 2373.876
-9999 -9999 -9999 -9999 -9999 -9999 -9999 -9999 -9999 -9999 -9999 -9999 -9999 -9999 2798.507 2799.891 2769.509 2740.216 2733.194 2719.959 2710.711 2699.823 2687.474 2672.736 2661.354 2655.949 2648.155 2640.54 2632.265 2627.251 2623.113 2610.614 2603.211 2598.926 2586.914 2589.139 2576.55 2570.601 2565.942 2556.41 2552.671 2549.259 2543.449 2537.887 2533.449 2527.639 2526.797 2531.447 2521.779 2518.383 2510.078 2511.306 2504.667 2502.418 2495.642 2494.191 2489.464 2485.887 2478.306 2477.105 2475.266 2466.154 2461.062 2455.008 2457.906 2450.873 2446.873 2442.663 2441.834 2437.46 2434.546 2432.618 2432.326 2433.919 2424.381 2426.498 2430.854 2428.001 2430.359 2428.032 2424.889 2428.912 2426.574 2427.947 2419.92 2421.357 2422.396 2416.604 2417.966 2414.541 2410.457 2414.381 2415.29 2406.294 2401.182 2404.211 2407.17 2404.751 2405.116 2410.195 2398.794 2401.873 2400.828 2401.442 2403.922 2401.454 2404.948 2403.219 2406.243 2405.1 2407.866 2407.427 2412.142 2408.422 2412.513 2413.624 2412.856 2417.239 2410.925 2408.332 2414.08 2406.2 2409.009 2414.751 2413.237 2411.675 2414.501 2412.337 2411.833 2412.194 2409.02 2413.315 2413.63 2416.157 2412.088 2413.235 2414.639 2408.791 2408.326 2404.026 2403.476 2401.084 2395.099 2397.404 2395.24 2392.029 2389.315 2384.428 2375.793 2373.93
-9999 -9999 -9999 -9999 -9999 -9999 -9999 -9999 -9999 -9999 -9999 -9999 -9999 -9999 2795.478 2800.372 2759.978 2740.739 2726.813 2721.296 2701.542 2685.357 2677.049 2672.971 2665.548 2654.665 2646.835 2639.071 2635.638 2629.223 2621.583 2610.834 2606.307 2597.134 2588.709 2578.116 2574.459 2566.678 2561.912 2556.214 2550.269 2547.997 2544.809 2541.945 2533.761 2529.948 2529.145 2523.838 2519.352 2516.594 2511.532 2509.812 2508.439 2505.29 2493.444 2494.153 2490.829 2485.293 2482.189 2477.524 2467.365 2466.019 2459.674 2458.247 2454.964 2452.8 2447.146 2446.391 2439.674 2443.312 2431.756 2435.905 2433.692 2433.957 2430.179 2428.977 2431.124 2427.7 2428.205 2433.991 2425.129 2428.578 2428.208 2422.591 2420.192 2422.473 2419.26 2419.003 2421.01 2414.306 2415.868 2409.601 2407.855 2409.853 2400.629 2404.497 2406.894 2402.861 2405.937 2400.807 2402.241 2402.709 2403.317 2401.351 2403 2402.276 2402.488 2405.063 2401.828 2404.829 2410.177 2407.114 2410.114 2408.606 2412.594 2415.877 2411.63 2412.517 2417.366 2410.396 2411.631 2410.684 2410.598 2415.446 2408.895 2416.853 2413.638 2411.361 2413.808 2417.191 2419.078 2416.498 2417.313 2413.297 2412.458 2416.828 2409.973 2409.89 2408.305 2405.065 2400.085 2400.196 2399.385 2398.266 2394.049 2394.642 2386.971 2383.64 2379.128 2381.416
-9999 -9999 -9999 -9999 -9999 -9999 -9999 -9999 -9999 -9999 -9999 -9999 -9999 2791.484 2801.469 2802.825 2740.479 2735.995 2725.835 2713.329 2696.271 2685.037 2678.434 2674.71 2663.743 2658.761 2649.711 2642.017 2631.228 2630.532 2619.211 2611.043 2609.953 2596.98 2587.453 2582.89 2576.086 2566.65 2560.603 2554.208 2546.558 2546.704 2538.92 2538.104 2534.964 2528.324 2529.464 2523.977 2517.853 2517.921 2513.255 2510.509 2501.826 2498.244 2496.242 2490.751 2491.902 2486.991 2480.099 2475.012 2466.674 2468.364 2461.134 2459.092 2452.947 2454.695 2451.193 2446.269 2440.729 2439.635 2435.368 2432.667 2429.233 2430.504 2428.771 2428.538 2431.204 2431.862 2424.972 2426.809 2426.38 2425.045 2424.494 2426.681 2422.756 2421.193 2421.142 2421.562 2415.124 2417.668 2414.478 2413.233 2409.08 2406.998 2406.044 2405.368 2405.926 2403.645 2406.821 2402.634 2405.314 2401.287 2407.594 2406.837 2408.958 2404.584 2406.488 2403.512 2403.899 2406.169 2408.998 2412.017 2415.462 2414.252 2416.034 2416.871 2414.229 2412.764 2413.328 2413.651 2414.18 2416.456 2408.842 2410.401 2413.433 2410.963 2414.337 2415.998 2416.93 2418.713 2417.863 2415.849 2417.918 2419.563 2418.135 2415.126 2412.896 2408.925 2404.796 2405.114 2404.802 2403.943 2404.351 2394.949 2391.583 2386.13 2387.554 2386.181 2381.652 2375.284
-9999 -9999 -9999 -9999 -9999 -9999 -9999 -9999 -9999 -9999 -9999 -9999 -9999 2794.699 2793.478 2775.674 2739.152 2727.233 2716.989 2699.626 2692.815 2686.102 2675.757 2667.349 2662.295 2655.443 2650.984 2638.569 2636.597 2629.233 2617.767 2612.195 2601.337 2597.232 2582.182 2579.165 2569.831 2569.159 2558.721 2551.551 2548.522 2544.063 2540.262 2537.035 2533.428 2537.056 2526.773 2525.625 2522.873 2516.085 2510.651 2509.95 2503.873 2501.682 2498.479 2491.19 2490.478 2482.386 2480.974 2476.839 2474.265 2469.226 2462.551 2457.812 2452.106 2450.332 2445.232 2445.557 2442.07 2438.862 2437.417 2433.024 2433.841 2431.832 2432.759 2434.944 2430.205 2430.132 2426.288 2430.087 2425.68 2423.238 2422.969 2427.665 2421.791 2421.521 2419.769 2421.412 2419.549 2416.32 2413.785 2410.462 2410.088 2407.091 2408.397 2410.151 2405.231 2411.644 2405.063 2408.827 2403.968 2404.556 2412.139 2415.223 2413.189 2415.653 2412.444 2414.749 2413.537 2412.826 2414.931 2413.181 2419.211 2418.316 2416.37 2413.19 2417.259 2418.461 2411.92 2410.329 2412.665 2411.732 2410.033 2410.13 2415.441 2416.925 2420.027 2418.418 2420.473 2420.846 2420.201 2419.452 2424.297 2416.122 2416.328 2413.164 2416.21 2414.657 2409.647 2407.539 2406.279 2401.568 2399.527 2398.857 2390.512 2389.766 2384.988 2387.561 2382.044 2378.645
-9999 -9999 -9999 -9999 -9999 -9999 -9999 -9999 -9999 -9999 -9999 -9999 2784.409 2795.035 2797.105 2747.887 2733.783 2730.437 2712.344 2696.838 2686.758 2682.66 2674.771 2666.303 2663.401 2651.01 2645.949 2641.039 2634.767 2626.679 2616.2 2613.152 2603.126 2595.239 2582.874 2579.691 2569.885 2563.124 2557.687 2552.117 2547.692 2543.651 2538.771 2538.852 2532.65 2528.074 2528.576 2529.509 2521.857 2517.302 2511.86 2511.222 2503.065 2499.727 2494.99 2492.563 2491.477 2481.678 2481.61 2476.637 2473.813 2466.796 2460.497 2458.01 2456.692 2450.482 2449.167 2446.538 2445.867 2440.642 2439.667 2436.436 2435.876 2435.225 2435.594 2437.15 2431.73 2429.238 2425.893 2424.78 2422.749 2425.704 2425.807 2424.14 2423.41 2421.961 2423.786 2423.515 2420.408 2414.966 2417.16 2417.379 2409.866 2410.381 2412.531 2410.697 2409.255 2412.726 2409.896 2410.631 2407.97 2409.873 2417.182 2415.054 2417.473 2418.533 2420.33 2417.278 2421.158 2425.05 2419.598 2421.314 2420.527 2417.016 2420.998 2415.831 2415.487 2416.577 2414.99 2415.589 2413.258 2410.616 2412.723 2415.071 2415.98 2415.935 2420.148 2422.195 2423.421 2423.073 2422.497 2422.081 2418.545 2411.55 2412.846 2415.187 2417.716 2414.799 2411.219 2408.708 2408.783 2404.16 2401.662 2397.01 2389.677 2389.182 2384.463 2387.128 2387.352 2381.963
-9999 -9999 -9999 -9999 -9999 -9999 -9999 -9999 -9999 -9999 -9999 2791.278 2796.719 2792.951 2782.107 2743.615 2734.764 2718.849 2705.473 2697.966 2684.92 2681.236 2670.621 2669.865 2658.732 2647.522 2647.62 2637.372 2631.128 2628.535 2623.198 2612.22 2601.393 2594.754 2588.952 2579.45 2574.743 2561.963 2564.015 2549.767 2548.957 2544.052 2542.877 2539.425 2536.512 2532.444 2524.402 2521.65 2520.838 2511.951 2511.633 2507.396 2504.282 2500.267 2498.585 2490.584 2488.048 2482.93 2481.531 2472.042 2469.125 2469.019 2464.593 2461.15 2457.389 2446.226 2446.648 2442.321 2443.6 2444.264 2441.343 2438.96 2434.236 2434.497 2439.633 2438.594 2432.235 2428.982 2426.924 2429.247 2425.241 2428.637 2431.766 2427.866 2428.612 2423.715 2418.879 2424.827 2422.544 2420.127 2419.469 2415.322 2415.172 2415.025 2414.426 2412.722 2413.936 2409.848 2409.034 2413.613 2414.823 2414.695 2417.853 2426.034 2424.005 2423.676 2425.54 2430.819 2429.001 2424 2425.968 2427.761 2422.069 2421.399 2415.546 2414.416 2417.13 2414.032 2413.222 2414.94 2412.041 2413.367 2414.41 2416.304 2419.818 2420.911 2424.31 2422.536 2424.05 2423.465 2418.01 2419.396 2417.06 2409.217 2416.933 2417.543 2416.848 2414.67 2411.016 2413.403 2409.44 2408.933 2400.868 2398.393 2398.385 2393.98 2392.152 2394.667 2385.491 2382.359
-9999 -9999 -9999 -9999 -9999 -9999 -9999 -9999 -9999 -9999 2782.135 2793.245 2783.025 2777.33 2750.105 2743.927 2732.305 2705.899 2701.371 2693.328 2683.607 2676.788 2674.227 2664.372 2656.575 2651.704 2646.861 2639.439 2627.429 2625.144 2616.458 2610.951 2603.919 2597.853 2590.607 2581.473 2571.62 2569.758 2557.99 2558.87 2546.858 2544.649 2545.391 2539.003 2534.544 2529.289 2525.66 2521.987 2521.089 2513.55 2508.069 2510.882 2500.209 2499.212 2494.385 2488.907 2487.02 2486.62 2478.275 2476.218 2469.746 2470.981 2461.479 2455.839 2451.666 2454.78 2451.35 2448.317 2449.62 2441.559 2439.249 2438.822 2442.012 2445.31 2444.036 2431.479 2431.579 2429.932 2431.336 2427.352 2430.496 2433.548 2430.973 2424.805 2431.587 2429.303 2429.836 2425.082 2424.614 2423.442 2416.39 2422.05 2417.147 2415.719 2415.637 2407.849 2412.121 2415.149 2412.739 2420.68 2416.492 2424.708 2428.149 2427.902 2427.883 2429.368 2433.5 2429.155 2427.406 2424.417 2427.076 2421.667 2421.968 2418.399 2417.028 2417.25 2417.58 2420.632 2410.741 2411.66 2413.013 2415.462 2414.609 2423.854 2422.322 2425.996 2421.962 2421.357 2425.254 2421.105 2418.407 2414.263 2413.551 2414.571 2415.179 2422.418 2417.868 2416.389 2417.375 2416.617 2411.367 2404.474 2403.123 2397.615 2400.597 2395.568 2397.336 2389.53 2387.951 2390.417
-9999 -9999 -9999 -9999 -9999 -9999 -9999 -9999 -9999 -9999 2784.161 2788.449 2767.13 2752.344 2737.064 2734.748 2710.854 2703.596 2694.802 2691.822 2682.205 2679.35 2668.88 2664.712 2655.953 2648.727 2644.977 2637.415 2633.777 2626.83 2616.627 2612.274 2606.633 2597.945 2588.592 2579.142 2575.169 2567.48 2562.67 2552.496 2552.702 2548.391 2543.952 2539.235 2535.167 2530.117 2532.986 2525.946 2520.624 2512.278 2512.931 2505.117 2502.203 2496.209 2491.019 2487.986 2484.679 2478.671 2480.502 2473.65 2474.884 2469.125 2462.216 2457.876 2454.86 2451.112 2455.242 2453.934 2448.509 2445.34 2442.805 2441.874 2449.878 2446.149 2443.434 2438.893 2432.244 2433.453 2429.911 2427.226 2430.863 2431.227 2429.206 2427.762 2430.85 2431.402 2429.827 2426.116 2432.578 2424.914 2418.359 2424.298 2423.833 2422.999 2419.901 2416.109 2414.365 2417.936 2420.787 2423.519 2426.115 2427.162 2431.045 2430.463 2434.144 2434.252 2431.111 2436.067 2428.893 2422.355 2426.008 2425.721 2417.238 2417.175 2418.07 2416.194 2416.581 2417.875 2414.952 2414.648 2415.904 2415.073 2420.77 2420.981 2419.028 2425.472 2425.482 2423.544 2421.349 2420.174 2418.461 2411.29 2411.967 2411.171 2416.172 2420.72 2417.496 2417.907 2413.799 2417.065 2413.763 2413.779 2407.402 2403.352 2401.227 2399.834 2394.631 2392.991 2390.037 2384.166
-9999 -9999 -9999 -9999 -9999 -9999 -9999 -9999 -9999 -9999 2784.883 2781.49 2754.036 2732.387 2724.793 2719.07 2714.56 2700.22 2697.603 2692.439 2683.88 2681.316 2672.384 2665.17 2653.918 2649.739 2644.714 2636.999 2634.458 2627.503 2614.594 2611.76 2605.444 2596.527 2592.327 2580.513 2576.089 2565.353 2560.749 2563.634 2556.921 2543.746 2544.088 2540.725 2536.861 2532.768 2524.171 2522.363 2516.175 2515.411 2510.962 2501.104 2503.579 2502.195 2488.949 2489.615 2481.757 2481.402 2480.112 2475.906 2471.218 2470.534 2466.521 2461.004 2457.594 2459.322 2454.103 2447.397 2445.476 2444.455 2445.327 2448.863 2448.756 2444.837 2443.177 2437.289 2441.003 2428.402 2434.736 2434.381 2429.943 2433.937 2432.625 2432.517 2429.779 2429.615 2431.318 2432.066 2432.849 2428.381 2425.462 2426.656 2423.195 2422.7 2421.149 2419.671 2418.904 2429.364 2423.24 2425.625 2424.863 2430.078 2434.914 2434.596 2436.147 2427.598 2430.531 2428.753 2431.094 2434.29 2426.215 2427.318 2422.893 2423.055 2424.502 2421.791 2419.333 2421.429 2416.201 2416.943 2420.864 2420.263 2422.561 2418.635 2423.486 2423.639 2427.586 2422.59 2420.862 2419.833 2415.98 2413.866 2414.625 2418.262 2417.559 2417.847 2420.003 2417.198 2418.586 2416.688 2413.294 2407.198 2401.17 2397.839 2399.397 2392.418 2396.286 2389.613 2392.138 2388.822
-9999 -9999 -9999 -9999 -9999 -9999 -9999 -9999 -9999 -9999 2776.244 2761.931 2745.589 2725.693 2724.862 2716.854 2712.331 2706.362 2696.379 2688.816 2680.702 2675.958 2672.334 2663.647 2662.308 2646.613 2646.268 2635.362 2627.102 2621.307 2615.632 2610.829 2602.795 2593.582 2585.339 2579.133 2573.603 2567.921 2563.77 2555.557 2552.776 2549.678 2544.822 2538.742 2535.936 2530.053 2528.171 2518.811 2517.082 2513.221 2510.937 2511.48 2499.109 2499.079 2495.268 2494.582 2486.324 2482.451 2475.369 2476.506 2470.847 2464.945 2465.21 2461.517 2458.254 2459.803 2460.751 2452.197 2450.699 2451.117 2449.795 2453.989 2452.362 2451.625 2443.735 2440.655 2441.724 2439.957 2437.312 2433.876 2436.445 2436.658 2435.325 2431.254 2434.378 2437.298 2435.863 2430.628 2433.164 2430.622 2428.122 2427.177 2426.617 2423.293 2422.565 2422.59 2424.625 2425.706 2428.06 2431.482 2430.051 2438.377 2437.496 2433.423 2438.331 2432.157 2429.617 2432.484 2434.336 2434.353 2431.88 2430.905 2425.322 2425.245 2425.684 2422.151 2420.334 2422.964 2424.135 2422.087 2427.611 2428.082 2426.174 2425.782 2427.58 2422.794 2426.994 2420.966 2422.073 2416.796 2414.358 2418.99 2418.041 2424.329 2420.718 2419.69 2423.139 2417.778 2413.311 2415.262 2410.41 2408.217 2407.031 2399.929 2397.023 2395.262 2396.576 2397.599 2392.641 2391.444
-9999 -9999 -9999 -9999 -9999 -9999 -9999 -9999 -9999 -9999 2773.999 2742.603 2730.285 2724.947 2717.651 2713.18 2707.457 2705.815 2698.74 2689.879 2679.927 2675.225 2671.904 2660.043 2656.505 2653.502 2642.339 2633.779 2627.227 2619.455 2610.851 2604.447 2599.88 2592.189 2589.596 2576.329 2575.54 2574.396 2564.334 2559.843 2558.825 2556.105 2542.66 2539.976 2535.572 2527.79 2524.832 2523.265 2515.738 2511.928 2508.282 2502.685 2496.65 2496.431 2493.164 2491.12 2485.017 2478.511 2479.573 2473.503 2470.242 2468.548 2461.304 2459.612 2462.796 2458.723 2463.622 2450.028 2451.022 2455.044 2453.377 2452.232 2450.002 2451.843 2447.179 2444.653 2443.071 2444.537 2443.678 2436.193 2439.342 2437.191 2431.87 2434.326 2439.462 2442.839 2443.037 2433.983 2435.328 2437.16 2431.826 2428.668 2424.473 2422.293 2421.872 2428.631 2432.02 2429.821 2434.449 2436.285 2440.023 2441.724 2440.972 2436.817 2434.962 2434.975 2437.094 2433.276 2428.924 2433.924 2434.852 2431.646 2433.587 2429.647 2430.428 2428.308 2428.324 2425.752 2429.891 2428.505 2428.341 2427.897 2431.642 2425.91 2426.05 2424.818 2420.432 2418.438 2419.401 2420.042 2417.451 2419.972 2427.41 2419.382 2421.664 2419.535 2420.351 2416.545 2416.906 2420.057 2412.979 2406.932 2401.948 2396.632 2396.414 2395.578 2399.069 2399.922 2398.905 2397.975
-9999 -9999 -9999 -9999 -9999 -9999 -9999 -9999 -9999 -9999 -9999 2735.137 2723.637 2715.929 2712.079 2706.622 2705.895 2699.868 2690.331 2684.253 2681.219 2669.594 2672.301 2662.093 2651.892 2648.263 2643.781 2634.686 2626.347 2619.346 2611.201 2604.333 2601.597 2591.591 2580.704 2580.684 2576.775 2568.821 2567.511 2562.136 2556.316 2552.873 2548.747 2537.218 2532.496 2532.673 2528.116 2522.873 2516.958 2515.256 2510.608 2503.773 2503.47 2494.682 2492.148 2483.916 2485.202 2480.957 2476.645 2473.113 2468.491 2465.659 2466.021 2468.107 2463.492 2461.335 2459.126 2457.418 2461.078 2457.173 2456.948 2458.65 2454.688 2450.698 2454.28 2450.49 2448.995 2448.918 2445.777 2444.31 2440.025 2446.982 2444.715 2439.371 2441.136 2446.085 2440.941 2438.074 2439.441 2439.772 2432.315 2431.788 2426.117 2423.408 2427.034 2433.805 2434.913 2438.788 2439.924 2438.339 2443.62 2445.118 2440.392 2436.468 2435.555 2432.063 2430.61 2435.281 2434.253 2434.259 2434.582 2435.676 2430.643 2436.983 2435.839 2432.815 2435.772 2431.211 2437.279 2431.975 2430.844 2431.234 2432.663 2433.883 2426.429 2428.182 2424.728 2418.715 2418.203 2414.257 2414.365 2415.573 2416.431 2416.864 2419.907 2417.227 2419.838 2417.284 2413.055 2412.119 2404.893 2404.43 2398.594 2393.679 2398.257 2395.725 2397.403 2399.668 2399.774 2400.497
-9999 -9999 -9999 -9999 -9999 -9999 -9999 -9999 -9999 -9999 -9999 2726.775 2723.216 2718.193 2709.62 2709.434 2700.958 2692.931 2689.546 2683.164 2677.812 2669.087 2663.704 2662.219 2651.505 2644.214 2638.168 2628.193 2624.498 2617.305 2607.158 2603.329 2596.624 2589.253 2583.4 2574.866 2569.223 2567.071 2569.9 2561.683 2556.499 2550.121 2546.338 2534.818 2538.496 2533.206 2528.936 2521.977 2517.9 2515.09 2510.505 2503.375 2501.053 2491.196 2490.886 2487.267 2488.942 2483.388 2478.033 2475.191 2470.166 2469.611 2469.26 2474.298 2468 2464.413 2470.384 2469.273 2462.846 2463.796 2458.802 2463.798 2459.372 2458.042 2457.11 2452.555 2452.677 2451.569 2449.257 2445.476 2445.382 2445.917 2444.31 2446.965 2441.421 2445.357 2443.455 2443.901 2442.532 2435.603 2434.092 2434.117 2434.38 2434.08 2437.447 2433.187 2444.462 2443.411 2442.57 2443.581 2442.467 2437.208 2443.69 2437.709 2439.131 2439.102 2437.82 2436.351 2440.051 2441.249 2438.905 2438.516 2438.219 2437.063 2436.242 2437.795 2435.479 2437.649 2439.744 2435.2 2434.927 2435.104 2433.319 2429.769 2431.232 2427.371 2427.71 2415.154 2413.403 2411.141 2412.524 2413.07 2412.932 2418.136 2419.161 2412.939 2414.828 2417.665 2410.221 2405.689 2403.003 2398.75 2394.149 2398.781 2399.596 2398.759 2392.138 2398.13 2397.801 2400.995
-9999 -9999 -9999 -9999 -9999 -9999 -9999 -9999 -9999 -9999 -9999 2710.42 2725.971 2719.745 2714.789 2706.908 2703.034 2691.442 2681.619 2677.149 2673.763 2669.883 2664.267 2656.056 2648.674 2644.273 2632.041 2633.061 2622.37 2615.079 2603.109 2597.499 2593.03 2585.198 2584.502 2577.374 2571.626 2568.278 2564.972 2557.202 2551.392 2549.317 2543.358 2540.996 2535.744 2533.596 2526.728 2517.839 2517.319 2510.109 2508.483 2504.05 2496.677 2492.925 2492.47 2487.8 2487.034 2485.812 2477.833 2475.125 2477.918 2473.367 2474.443 2471.655 2474.315 2481.1 2470.565 2468.217 2467.896 2464.116 2462.182 2462.429 2466.365 2456.425 2459.075 2457.431 2458.613 2454.661 2453.207 2451.508 2447.88 2454.084 2450.046 2448.049 2450.014 2447.457 2448.513 2441.874 2440.271 2441.225 2437.784 2434.163 2436.219 2435.668 2440.308 2442.54 2442.747 2446.617 2444.575 2444.638 2445.248 2440.158 2438.242 2437.268 2439.108 2439.951 2442.319 2438.573 2442.854 2445.26 2440.189 2443.689 2445.231 2443.302 2444.067 2444.451 2445.584 2444.66 2442.185 2440.353 2440.545 2437.007 2435.831 2430.087 2432.148 2427.615 2421.996 2417.729 2413.339 2410.016 2412.153 2412.786 2408.907 2411.034 2414.11 2416.348 2413.095 2412.51 2409.849 2403.777 2400.887 2394.993 2400.114 2401.762 2402.737 2399.145 2399.035 2402.13 2400.278 2398.993
-9999 -9999 -9999 -9999 -9999 -9999 -9999 -9999 -9999 -9999 -9999 2710.504 2724.615 2722.049 2716.161 2713.031 2698.609 2691.036 2683.802 2673.895 2673.364 2668.282 2661.241 2654.926 2646.556 2639.495 2631.2 2622.441 2616.85 2610.163 2604.146 2596.17 2591.724 2586.779 2583.199 2574.1 2573.554 2565.151 2559.491 2560.027 2548.591 2547.07 2544.7 2537.756 2536.285 2525.556 2526.065 2517.129 2516.564 2511.075 2504.46 2502.502 2496.202 2497.787 2492.53 2490.844 2489.698 2483.201 2480.909 2478.714 2483.257 2482.594 2478.246 2479.813 2475.342 2475.5 2472.499 2471.948 2466.182 2467.74 2467.21 2463.918 2463.986 2465.174 2462.24 2463.123 2456.471 2455.806 2457.155 2451.008 2451.827 2456.058 2452.339 2449.596 2452.873 2452.175 2450.979 2444.178 2444.401 2439.148 2439.738 2444.282 2440.613 2440.121 2444.487 2444.015 2448.262 2446.558 2443.914 2445.667 2441.52 2442.797 2438.575 2439.849 2442.569 2440.004 2442.521 2444.958 2447.191 2447.634 2446.473 2447.457 2444.229 2456.249 2452.027 2448.541 2449.642 2446.721 2446.915 2444.632 2441.571 2436.183 2434.601 2434.237 2432.388 2422.033 2414.739 2418.054 2415.396 2411.461 2413.189 2410.943 2406.027 2406.407 2412.296 2415.587 2413.651 2414.242 2412.075 2400.956 2406.21 2403.122 2399.487 2400.514 2401.507 2404.997 2404.915 2397.064 2401.359 2398.283
-9999 -9999 -9999 -9999 -9999 -9999 -9999 -9999 -9999 -9999 -9999 2707.188 2726.796 2719.599 2717.525 2708.125 2699.776 2690.421 2681.715 2675.778 2673.497 2666.739 2653.642 2652.142 2646.92 2640.453 2630.364 2620.19 2609.017 2606.719 2597.414 2592.375 2590.415 2586.522 2579.167 2573.275 2570.333 2562.741 2559.811 2558.113 2552.347 2544.891 2540.891 2535.972 2536.163 2528.396 2524.623 2519.859 2515.418 2506.709 2505.361 2502.429 2497.298 2495.823 2493.574 2491.429 2486.434 2485.645 2487.091 2483.488 2491.265 2490.711 2483.965 2483.975 2484.406 2480.126 2474.854 2477.309 2469.451 2476.364 2471.936 2472.66 2472.166 2473.113 2470.399 2467.911 2463.593 2463.895 2460.409 2456.679 2452.004 2454.183 2454.209 2453.36 2457.084 2453.947 2450.584 2445.815 2440.089 2441.142 2446.444 2444.831 2442.539 2445.58 2445.434 2446.482 2452.822 2450.682 2446.901 2445.644 2444.548 2442.635 2442.685 2443.294 2444.974 2446.133 2446.794 2447.347 2450.244 2451.656 2455.469 2451.565 2452.509 2456.771 2453.328 2457.455 2454.888 2452.915 2449.328 2445.193 2440.154 2441.832 2434.516 2435.856 2432.261 2423.496 2421.205 2413.886 2416.267 2408.638 2403.752 2402.596 2407.697 2404.26 2409.084 2413.365 2409.058 2414.419 2409.017 2404.619 2404.362 2404.733 2408.396 2407.508 2409.606 2405.074 2404.907 2396.031 2400.228 2396.068
-9999 -9999 -9999 -9999 -9999 -9999 -9999 -9999 -9999 -9999 -9999 -9999 2712.89 2725.085 2718.189 2709.916 2700.895 2689.95 2687.23 2673.985 2670.066 2664.922 2656.371 2645.078 2642.041 2635.097 2625.584 2615.078 2611.374 2602.141 2600.861 2591.364 2588.922 2578.841 2577.856 2570.148 2566.767 2561.154 2556.791 2551.039 2544.052 2538.633 2538.865 2535.475 2536.097 2530.848 2527.388 2519.331 2515.729 2512.697 2506.527 2503.989 2497.77 2493.375 2490.377 2491.26 2487.59 2495.066 2495.596 2488.042 2488.404 2485.667 2488.81 2483.122 2479.617 2481.835 2481.37 2481.588 2479.801 2477.337 2477.885 2476.106 2472.986 2470.693 2474.534 2469.057 2468.38 2465.752 2462.588 2463.579 2462.426 2462.64 2456.833 2459.569 2454.479 2457.709 2450.878 2447.721 2449.475 2450.638 2452.313 2445.922 2449.745 2446.385 2449.385 2454.461 2453.278 2456.798 2449.546 2446.817 2446.056 2440.581 2446.114 2441.5 2449.932 2443.358 2451.786 2452.725 2458.524 2455.652 2458.922 2459.913 2459.683 2457.768 2453.041 2455.321 2456.803 2455.935 2449.716 2449.605 2444.006 2445.058 2439.653 2433.814 2428.274 2425.619 2420.472 2416.717 2416.727 2408.259 2405.529 2404.409 2402.676 2404.412 2402.982 2405.13 2406.169 2410.583 2408.058 2407.444 2408.512 2407.702 2409.471 2408.151 2407.778 2404.606 2408.318 2400.363 2399.183 2397.353
-9999 -9999 -9999 -9999 -9999 -9999 -9999 -9999 -9999 -9999 -9999 -9999 2715.494 2726.838 2723.483 2705.4 2700.433 2687.585 2679.175 2676.478 2668.241 2665.341 2651.011 2648.059 2638.417 2633.475 2623.411 2613.706 2611.775 2599.286 2597.884 2593.615 2588.71 2578.339 2575.703 2567.759 2564.693 2556.294 2548.449 2547.069 2539.647 2539.654 2542.652 2537.983 2540.095 2530.117 2530.074 2521.347 2514.253 2512.894 2505.059 2505.025 2499.23 2497.343 2488.531 2491.111 2492.789 2494.208 2492.25 2493.415 2494.977 2494.918 2490.713 2485.032 2482.508 2484.7 2482.89 2486.256 2491.405 2484.261 2481.422 2477.257 2474.278 2472.653 2477.489 2474.489 2472.947 2470.644 2462.728 2461.323 2464.707 2462.904 2463.55 2463.352 2457.417 2454.979 2455.252 2455.739 2457.739 2453.255 2451.598 2454.156 2454.438 2452.427 2451.24 2455.408 2456.564 2454.101 2452.914 2447.604 2445.435 2447.719 2451.811 2453.984 2450.77 2454.502 2455.198 2457.042 2455.212 2457.152 2458.674 2461.363 2462.917 2460.356 2462.9 2456.67 2460.201 2456.7 2455.396 2447.104 2445.813 2446.294 2435.197 2439.172 2432.031 2425.218 2424.515 2417.451 2416.041 2407.36 2412.827 2402.354 2398.771 2403.845 2399.305 2400.889 2405.347 2407.822 2405.695 2410.062 2407.775 2409.688 2411.073 2411.094 2407.937 2409.07 2409.731 2402.087 2404.342 2399.245
-9999 -9999 -9999 -9999 -9999 -9999 -9999 -9999 -9999 -9999 -9999 -9999 2705.339 2732.851 2729.015 2707.801 2697.743 2683.511 2679.819 2673.697 2669.539 2662.986 2648.171 2646.254 2633.768 2628.657 2617.691 2615.664 2610.954 2603.056 2597.783 2595.59 2588.674 2579.948 2575.136 2563.913 2560.931 2553.992 2547.794 2543.312 2538.024 2538.187 2543.375 2540.646 2535.107 2532.871 2526.143 2524.452 2517.302 2515.787 2507.55 2501.93 2502.194 2494.021 2497.804 2501.186 2498.818 2496.771 2495.322 2497.844 2494.101 2497.687 2491.9 2488.231 2483.502 2486.124 2487.882 2485.5 2486.432 2486.912 2482.812 2482.811 2482.169 2480.836 2480.537 2475.476 2469.89 2472.141 2470.183 2467.155 2465.927 2470.708 2460.938 2457.819 2460.894 2462.341 2459.597 2459.533 2458.836 2457.531 2457.037 2455.968 2454.92 2458.701 2457.569 2453.099 2456.135 2450.527 2449.338 2450.322 2452.619 2452.144 2451.764 2455.53 2452.772 2456.098 2457.636 2458.786 2464.209 2465.671 2462.447 2464.738 2461.962 2466.036 2462.906 2461.317 2461.533 2453.336 2450 2452.718 2449.831 2443.517 2437.04 2435.441 2433.618 2427.14 2426.865 2418.132 2416.48 2409.274 2403.071 2399.132 2399.553 2401.715 2401.076 2399.53 2401.562 2405.661 2405.418 2404.943 2406.276 2415.255 2413.988 2415.822 2410.701 2408.658 2407.41 2403.166 2405.824 2402.921
-9999 -9999 -9999 -9999 -9999 -9999 -9999 -9999 -9999 -9999 -9999 -9999 2720.342 2730.184 2722.869 2712.629 2693.058 2685.389 2680.046 2669.891 2662.196 2652.481 2644.977 2641.052 2633.742 2621.92 2617.536 2613.09 2607.885 2602.247 2597.803 2591.058 2582.051 2578.26 2570.957 2562.087 2562.248 2555.038 2547.107 2544.484 2537.597 2534.927 2542.323 2539.817 2532.063 2534.426 2527.028 2524.966 2514.884 2512.097 2511.268 2503.092 2501.031 2500.491 2496.105 2497.91 2497.507 2496.102 2500.247 2500.86 2493.695 2502.143 2487.709 2489.835 2483.382 2483.225 2484.269 2485.214 2486.664 2492.46 2488.936 2480.942 2480.578 2477.788 2479.647 2477.308 2472.314 2470.347 2472.837 2471.233 2470.463 2467.444 2466.483 2462.862 2461.871 2464.622 2459.385 2461.499 2460.694 2465.131 2463.113 2458.814 2460.371 2456.062 2459.128 2452.399 2451.323 2449.803 2448.995 2454.58 2456.062 2452.874 2454.544 2457.674 2460.266 2459.682 2463.473 2464.66 2465.896 2466.011 2469.36 2466.679 2466.252 2462.133 2464.997 2459.433 2458.581 2451.776 2452.55 2451.912 2451.729 2448.867 2445.92 2438.992 2434.593 2427.935 2426.286 2419.1 2413.204 2412.338 2407.197 2399.322 2399.354 2399.28 2397.589 2401.729 2402.245 2402.565 2403.24 2407.381 2404.098 2410.839 2412.695 2407.236 2407.496 2408.583 2408.362 2401.99 2404.902 2402.803
-9999 -9999 -9999 -9999 -9999 -9999 -9999 -9999 -9999 -9999 -9999 2720.915 2738.755 2737.216 2722.049 2709.142 2694.682 2685.47 2675.108 2670.052 2661.564 2655.019 2646.382 2637.888 2631.519 2625.217 2615.033 2610.446 2606.128 2605.113 2590.808 2588.336 2577.087 2571.143 2571.538 2564.351 2555.114 2552.228 2548.03 2542.604 2536.327 2536.8 2531.039 2532.938 2530.615 2531.082 2528.087 2521.898 2516.916 2514.044 2512.506 2503.048 2501.529 2502.596 2505.49 2499.73 2499.857 2495.664 2502.58 2498.82 2494.26 2497.452 2495.369 2490.851 2493.304 2494.555 2492.551 2489.747 2489.427 2490.083 2484.035 2487.647 2480.163 2477.695 2476.292 2477.849 2479.773 2475.824 2474.789 2470.659 2472.599 2466.652 2470.65 2467.448 2463.608 2467.359 2469.299 2468.601 2463.407 2465.476 2465.733 2461.935 2468.151 2464.269 2458.496 2456.615 2456.309 2453.8 2455.72 2458.89 2456.147 2458.112 2462.184 2465.952 2466.098 2466.229 2469.362 2470.278 2468.074 2471.665 2467.652 2468.651 2463.103 2463.685 2461.481 2459.452 2452.58 2458.055 2457.66 2457.17 2451.064 2449.131 2443.098 2443.412 2435.783 2425.612 2418.58 2419.407 2420.335 2409.363 2408.342 2402.626 2397.311 2398.151 2397.903 2400.306 2395.071 2405.57 2408.17 2407.132 2409.902 2412.481 2411.084 2415.317 2410.977 2406.646 2402.683 2402.597 2401.765 2406.644
-9999 -9999 -9999 -9999 -9999 -9999 -9999 -9999 -9999 -9999 -9999 2738.036 2746.036 2732.787 2714.112 2702.044 2688.965 2689.567 2679.976 2671.608 2662.969 2657.103 2648.919 2638.916 2629.053 2624.647 2613.74 2607.649 2596.588 2592.695 2590.776 2583.518 2581.223 2576.831 2569.574 2560.979 2557.355 2555.185 2547.807 2544.433 2535.521 2531.38 2533.396 2530.769 2528.598 2532.033 2525.87 2519.406 2515.961 2516.446 2505.932 2496.163 2503.557 2501.965 2498.911 2501.234 2500.853 2501.257 2499.918 2498.521 2499.404 2494.077 2490.913 2493.04 2494.683 2492.794 2494.861 2492.403 2493.789 2491.295 2490.338 2485.663 2484.897 2481.755 2482.988 2477.977 2480.573 2476.437 2476.15 2471.043 2474.647 2471.893 2470.539 2472.026 2475.246 2468.73 2467.584 2467.391 2469.023 2469.346 2467.753 2468.351 2466.381 2464.812 2460.192 2459.609 2455.629 2457.013 2457.791 2463.139 2461.446 2460.973 2467.755 2469.33 2469.23 2472.297 2472.891 2472.755 2473.574 2471.353 2474.684 2470.382 2466.679 2465.152 2457.219 2458.323 2458.517 2461.36 2462.071 2459.549 2451.605 2456.554 2444.84 2442.883 2432.416 2431.942 2423.576 2419.088 2415.897 2418.999 2407.948 2403.118 2404.849 2395.314 2399.754 2399.757 2402.453 2405.877 2406.875 2403.987 2406.153 2410.519 2415.007 2409.579 2406.34 2407.854 2403.033 2401.008 2398.909 2397.275
-9999 -9999 -9999 -9999 -9999 -9999 -9999 -9999 -9999 -9999 -9999 2742.769 2739.269 2725.17 2711.457 2701.923 2692.527 2687.774 2677.575 2668.444 2664.772 2656.059 2647.611 2632.068 2622.656 2615.94 2613.961 2605.431 2602.069 2593.138 2586.964 2583.122 2570.672 2569.391 2563.649 2560.979 2557.788 2556.267 2547.168 2540.581 2533.835 2533.137 2533.719 2528.718 2532.488 2524.901 2520.866 2526.064 2519.134 2509.458 2506.708 2508.323 2506.874 2503.995 2499.605 2497.365 2497.08 2501.564 2503.55 2503.911 2501 2494.573 2490.683 2493.528 2496.687 2495.886 2496.799 2493.896 2493.036 2489.621 2489.352 2488.609 2487.541 2487.671 2487.561 2487.845 2486.375 2484.763 2480.405 2479.102 2473.088 2469.15 2469.124 2470.699 2470.281 2471.709 2469.071 2467.741 2472.471 2469.58 2472.258 2470.688 2465.366 2461.213 2464.251 2460.986 2461.086 2463.791 2459.824 2463.83 2469.596 2467.306 2471.676 2470.63 2475.786 2473.932 2472.786 2477.884 2476.176 2473.549 2471.091 2470.136 2463.458 2463.25 2463.349 2458.92 2464.357 2468.712 2467.263 2465.827 2456.657 2454.917 2445.877 2447.275 2435.026 2434.89 2423.902 2426.079 2417.719 2413.115 2409.676 2403.67 2407.184 2400.286 2407.263 2405.65 2409.597 2406.922 2411.306 2401.556 2406.181 2414.756 2407.292 2408.815 2404.882 2401.502 2395.302 2395.205 2396.791 2397.439
-9999 -9999 -9999 -9999 -9999 -9999 -9999 -9999 -9999 -9999 -9999 -9999 2729.462 2721.1 2712.671 2703.231 2698.687 2689.884 2678.969 2671.16 2667.244 2657.248 2644.414 2633.555 2628.465 2613.218 2605.707 2603.643 2592.845 2593.259 2582.448 2575.945 2570.05 2568.16 2563.701 2561.448 2557.255 2553.235 2548.389 2541.629 2541.377 2531.651 2531.767 2527.97 2527.546 2525.479 2523.659 2519.236 2516.301 2508.897 2514.531 2508.698 2511.113 2501.2 2499.54 2502.428 2496.805 2500.833 2499.707 2501.245 2501.197 2497.966 2495.682 2495.807 2494.37 2498.365 2496.175 2497.881 2495.334 2495.309 2494.818 2490.165 2491.303 2493.038 2489.877 2493.733 2488.391 2486.691 2482.598 2473.181 2475.329 2473.581 2470.774 2472.376 2473.001 2472.29 2475.228 2472.21 2471.615 2468.812 2470.423 2469.823 2463.637 2465.372 2464.619 2463.702 2467.594 2462.991 2465.22 2467.656 2467.569 2471.144 2473.477 2472.276 2474.69 2477.438 2474.87 2478.587 2479.125 2471.641 2467.31 2471.574 2465.446 2467.051 2469.166 2467.467 2471.537 2472.948 2465.4 2469.219 2461.306 2454.033 2448.299 2442.952 2440.08 2430.089 2427.234 2419.815 2418.271 2412.668 2410.156 2406.386 2397.767 2404.349 2406.032 2410.176 2406.775 2409.73 2404.003 2400.431 2403.326 2410.033 2406.24 2403.076 2401.195 2396.477 2394.621 2393.214 2389.518 2394.83
-9999 -9999 -9999 -9999 -9999 -9999 -9999 -9999 -9999 -9999 -9999 -9999 -9999 2704.487 2711.603 2705.634 2698.075 2689.543 2683.534 2674.791 2668.142 2659.879 2645.638 2633.752 2623.89 2619.021 2609.079 2599.574 2595.226 2582.68 2575.774 2576.696 2574.063 2562.508 2564.924 2559.026 2560.208 2552.181 2549.288 2542.63 2540.798 2531.291 2529.822 2526.308 2528.754 2529.857 2521.712 2515.968 2517.33 2519.01 2517.911 2516.634 2506.985 2504.066 2502.684 2497.353 2502.48 2500.071 2504.993 2503.449 2505.551 2499.068 2496.82 2501.631 2498.304 2502.066 2501.121 2499.504 2492.909 2492.359 2494.685 2490.807 2494.607 2489.381 2492.719 2493.358 2494.931 2486.887 2482.15 2476.756 2478.83 2476.763 2474.083 2477.248 2472.261 2476.125 2477.63 2472.464 2473.619 2475.628 2473.152 2472.783 2468.51 2466.866 2470.903 2466.768 2469.556 2465.346 2469.827 2473.308 2474.909 2477.586 2478.313 2476.968 2477.166 2481.872 2475.835 2476.217 2473.312 2470.45 2471.326 2472.901 2469.756 2472.031 2476.274 2476.885 2475.229 2475.179 2479.471 2468.263 2464.346 2454.08 2450.008 2444.544 2441.557 2432.114 2429.397 2429.569 2421.434 2415.496 2410.956 2403.656 2397.858 2400.867 2402.873 2406.264 2400.326 2407.257 2403.636 2398.289 2398.311 2400.463 2403.494 2396.94 2403.548 2395.661 2391.759 2389.174 2388.129 2392.784
-9999 -9999 -9999 -9999 -9999 -9999 -9999 -9999 -9999 -9999 -9999 -9999 -9999 -9999 2706.99 2703.075 2694.991 2687.36 2684.177 2674.617 2664.914 2662.831 2641.608 2630.652 2622.759 2618.621 2603.956 2596.395 2590.296 2584.601 2578.065 2575.211 2568.687 2564.995 2563.525 2559.755 2558.854 2557.054 2552.657 2542.13 2540.927 2533.93 2530.537 2529.807 2525.759 2527.804 2525.647 2518.591 2522.263 2521.885 2517.532 2508.723 2508.469 2504.68 2501.171 2502.417 2496.172 2501.085 2500.956 2502.43 2500.631 2500.806 2498.067 2501.126 2497.347 2503.324 2495.277 2498.601 2496.486 2494.113 2491.663 2496.042 2496.824 2492.549 2495.895 2496.81 2492.184 2488.969 2484.902 2481.199 2479.234 2482.582 2481.498 2476.602 2481.291 2480.055 2479.14 2477.489 2476.923 2475.064 2477.031 2474.824 2475.977 2472.708 2469.9 2470.709 2469.054 2475.108 2473.78 2473.234 2480.521 2479.761 2482.462 2485.37 2488.983 2480.403 2486.188 2475.914 2471.321 2470.746 2470.383 2477.254 2473.956 2479.36 2486.646 2477.988 2480.15 2475.576 2474.333 2467.832 2464.584 2455.72 2453.121 2443.705 2435.194 2432.357 2431.033 2420.135 2419.325 2411.855 2407.184 2400.939 2394.536 2403.095 2398.909 2398.53 2395.635 2397.689 2401.264 2397.875 2397.291 2399.721 2401.996 2398.716 2398.112 2400.274 2396.792 2389.078 2391.324 2392.75
-9999 -9999 -9999 -9999 -9999 -9999 -9999 -9999 -9999 -9999 -9999 -9999 -9999 -9999 2701.886 2702.962 2699.394 2692.71 2684.79 2672.179 2669.219 2659.301 2638.516 2632.99 2621.361 2612.625 2601.194 2596.672 2588.28 2583.846 2575.514 2575.93 2567.727 2562.704 2556.701 2554.869 2553.612 2548.122 2551.415 2545.589 2538.578 2538.73 2531.448 2534.148 2528.471 2523.169 2523.505 2517.81 2520.813 2520.748 2521.75 2508.159 2507.456 2507.065 2502.958 2494.958 2499.247 2497.027 2498.672 2497.842 2499.287 2496.226 2497.777 2500.728 2499.998 2502.767 2494.581 2494.997 2492.991 2492.933 2494.84 2498.194 2493.406 2495.195 2494.283 2497.077 2492.195 2491.259 2485.485 2489.477 2485.888 2483.299 2481.196 2480.228 2481.99 2480.742 2476.933 2479.205 2475.437 2475.22 2485.323 2481.949 2477.783 2479.744 2475.783 2477.766 2474.553 2475.373 2480.889 2474.151 2481.342 2483.856 2482.358 2483.575 2486.816 2482.047 2477.959 2475.17 2473.478 2473.564 2478.372 2475.485 2479.494 2492.854 2488.052 2483.265 2482.61 2481.476 2470.875 2470.175 2466.811 2459.256 2452.344 2450.795 2440.708 2438.751 2432.36 2429.611 2418.911 2416.66 2406.6 2405.601 2397.993 2401.406 2397.725 2401.118 2396.967 2398.504 2393.609 2399.627 2394.513 2396.641 2401.121 2403.89 2398.072 2403.539 2398.747 2399.416 2392.896 2393.316
-9999 -9999 -9999 -9999 -9999 -9999 -9999 -9999 -9999 -9999 -9999 -9999 -9999 -9999 2702.123 2710.135 2699.426 2693.136 2685.626 2675.424 2671.817 2664.525 2635.855 2630.933 2620.484 2612.757 2601.201 2591.534 2589.665 2583.501 2575.021 2568.908 2565.145 2559.395 2561.212 2553.764 2553.804 2547.083 2549.809 2546.688 2539.829 2533.783 2531.439 2531.256 2524.165 2524.115 2519.572 2521.477 2523.25 2520.124 2517.229 2509.585 2513.087 2503.358 2502.169 2505.306 2498.535 2501.028 2496.031 2500.294 2502.115 2500.72 2500.194 2502.433 2503.721 2501.213 2499.434 2497.737 2507.213 2501.181 2495.666 2499.306 2501.845 2505.693 2497.405 2497.421 2492.136 2491.101 2492.806 2487.653 2486.325 2490.25 2488.885 2489.684 2487.825 2479.874 2483.434 2484.923 2484.644 2484.442 2487.119 2481.069 2479.41 2482.285 2482.995 2482.11 2479.248 2479.461 2480.869 2484.975 2482.798 2482.247 2484.256 2485.038 2482.075 2475.901 2477.029 2477.359 2475.771 2477.082 2483.746 2486.85 2489.947 2492.764 2489.447 2478.594 2485.817 2476.534 2478.184 2473.439 2467.835 2460.811 2452.919 2447.194 2438.915 2437.681 2438.462 2429.978 2427.807 2421.724 2419.183 2409.912 2410.684 2400.824 2397.251 2399.046 2396.23 2393.655 2402.454 2396.485 2394.054 2397.458 2398.996 2403.018 2402.73 2404.988 2397.645 2394.125 2390.923 2390.282
-9999 -9999 -9999 -9999 -9999 -9999 -9999 -9999 -9999 -9999 -9999 -9999 -9999 -9999 2703.217 2703.886 2696.444 2690.896 2686.37 2682.242 2673.058 2655.857 2639.93 2625.402 2618.403 2612.558 2602.662 2599.36 2588.501 2588.625 2578.64 2573.529 2571.198 2564.726 2558.002 2551.817 2550.461 2550.009 2544.047 2545.037 2542.194 2541.325 2534.296 2532.507 2531.482 2524.513 2525.513 2521.19 2524.657 2521.343 2516.992 2509.617 2508.941 2503.54 2505.332 2496.009 2505.839 2500.824 2499.701 2498.018 2499.348 2500.825 2500.891 2500.788 2500.712 2493.951 2498.724 2501.487 2501.28 2500.251 2501.012 2500.203 2503.86 2501.16 2497.959 2493.901 2494.281 2500.442 2499.996 2494.29 2489.108 2496.405 2492.534 2489.34 2487.757 2488.874 2487.325 2486.533 2487.171 2488.678 2481.162 2481.683 2483.239 2479.681 2484.167 2483.999 2483.893 2484.877 2485.533 2489.5 2487.614 2484.844 2487.562 2482.311 2480.579 2476.693 2480.069 2484.082 2474.401 2480.046 2484.478 2489.311 2490.742 2488.707 2485.415 2483.189 2483.62 2474.22 2472.984 2469.366 2469.47 2458.347 2455.808 2446.347 2445.281 2442.263 2439.93 2434.382 2426.957 2421.234 2417.153 2419.281 2411.725 2405.227 2400.73 2398.514 2396.521 2396.074 2395.444 2396.876 2402.236 2397.751 2401.484 2406.057 2399.052 2402.484 2396.686 2395.682 2393.366 2389.625
-9999 -9999 -9999 -9999 -9999 -9999 -9999 -9999 -9999 -9999 -9999 -9999 -9999 -9999 2683.375 2702.982 2696.098 2692.338 2690.384 2679.064 2676.257 2655.681 2639.983 2629.583 2618.855 2611.399 2604.514 2597.09 2590.392 2583.301 2578.086 2573.834 2564.518 2558.104 2554.276 2554.762 2548.603 2547.955 2546.72 2546.721 2545.809 2539.259 2535.984 2535.771 2530.854 2529.384 2532.817 2527.874 2526.085 2524.603 2518.183 2512.052 2506.963 2508.873 2502.239 2504.733 2500.965 2503.056 2500.441 2502.218 2499.888 2498.837 2503.076 2497.587 2498.313 2499.091 2502.947 2503.498 2502.588 2503.302 2505.158 2502.464 2505.812 2500.633 2497.774 2498.263 2501.665 2495.981 2504.522 2497.762 2498.36 2494.537 2500.709 2489.667 2489.167 2490.138 2492.811 2492.756 2486.729 2486.726 2486.788 2484.704 2484.987 2487.608 2485.775 2490.756 2489.905 2489.714 2486.082 2490.146 2488.965 2486.029 2487.282 2482.543 2477.437 2482.109 2470.433 2480.43 2476.417 2483.284 2487.929 2487.213 2489.396 2487.471 2485.523 2485.797 2485.478 2477.158 2472.619 2468.123 2462.602 2465.383 2456.547 2449.858 2445.538 2440.908 2436.608 2433.847 2422.692 2420.262 2410.462 2413.722 2411.119 2407.585 2401.699 2397.045 2398 2398.649 2399.531 2395.393 2398.185 2395.758 2401.52 2399.507 2402.492 2405.227 2395.909 2397.712 2396.682 2386.644
-9999 -9999 -9999 -9999 -9999 -9999 -9999 -9999 -9999 -9999 -9999 -9999 -9999 -9999 2680.038 2708.416 2705.264 2697.264 2691.337 2685.039 2675.929 2650.306 2642.473 2627.102 2622.117 2612.081 2604.008 2596.009 2586.663 2581.724 2583.348 2572.296 2566.459 2558.366 2550.326 2558.824 2551.271 2546.435 2544.498 2546.279 2549.558 2543.79 2537.424 2532.122 2537.125 2527.536 2529.678 2527.332 2525.629 2525.231 2520.888 2516.601 2511.588 2509.958 2503.626 2501.364 2500.565 2498.331 2507.87 2504.141 2498.917 2502.27 2500.101 2497.961 2501.539 2505.705 2502.428 2506.864 2507.489 2504.889 2510.172 2503.898 2503.942 2502.978 2496.948 2498.561 2500.467 2499.379 2500.099 2499.057 2499.948 2499.958 2498.576 2496.478 2495.074 2494.069 2493.731 2493.725 2489.666 2487.98 2485.33 2483.975 2482.81 2490.744 2485.941 2489.562 2490.396 2490.923 2492.883 2491.462 2489.514 2489.85 2482.618 2479.99 2474.671 2476.896 2476.907 2470.182 2476.668 2479.675 2481.722 2483.258 2491.02 2491.908 2491.672 2483.592 2485.181 2477.839 2477.736 2471.439 2467.942 2462.576 2457.908 2447.439 2447.152 2442.623 2435.332 2429.652 2427.708 2423.094 2417.249 2410.003 2411.253 2407.869 2398.235 2397.597 2400.799 2395.908 2400.981 2398.786 2397.798 2398.553 2400.65 2402.811 2400.836 2407.404 2401.099 2398.742 2392.563 2385.79
-9999 -9999 -9999 -9999 -9999 -9999 -9999 -9999 -9999 -9999 -9999 -9999 -9999 -9999 2683.59 2706.232 2709.508 2695.954 2693.277 2682.062 2676.568 2652.527 2645.174 2633.594 2619.573 2613.3 2603.912 2600.948 2594.165 2585.073 2580.668 2570.696 2566.741 2566.358 2556.198 2550.279 2550.65 2550.803 2546.775 2542.76 2539.319 2544.026 2539.67 2529.321 2529.833 2530.035 2526.625 2532.009 2530.476 2527.24 2524.304 2517.786 2508.422 2507.325 2501.406 2501.222 2504.573 2503.317 2505.091 2505.504 2502.314 2505.435 2505.365 2503.338 2505.937 2501.098 2507.903 2506.379 2507.263 2504.519 2505.205 2501.579 2502.494 2505.578 2498.003 2502.844 2501.676 2501.739 2498.589 2497.96 2497.491 2494.169 2491.795 2494.031 2493.075 2490.208 2492.753 2490.117 2486.456 2491.206 2489.675 2487.774 2486.682 2486.896 2484.706 2491.056 2487.156 2485.769 2490.863 2489.395 2489.338 2484.905 2482.237 2476.93 2472.141 2470.281 2472.778 2470.63 2476.988 2474.703 2483.711 2484.023 2491.648 2483.607 2483.337 2485.283 2475.711 2476.378 2471.331 2470.102 2469.268 2464.373 2456.874 2450.38 2441.885 2439.765 2433.336 2430.97 2423.78 2418.157 2416.129 2411.001 2406.862 2403.702 2400.331 2396.538 2399.108 2399.85 2400.311 2398.07 2396.604 2398.882 2403.956 2401.171 2403.828 2408.585 2401.295 2394.7 2394.553 2390.847
-9999 -9999 -9999 -9999 -9999 -9999 -9999 -9999 -9999 -9999 -9999 -9999 -9999 -9999 2681.152 2699.226 2711.391 2698.69 2692.084 2695.508 2678.81 2655.367 2650.148 2633.554 2623.85 2621.208 2614.553 2605.541 2597.78 2584.798 2580.031 2573.078 2565.98 2560.973 2557.673 2554.035 2553.148 2551.971 2546.2 2545.322 2550.007 2547.387 2536.865 2528.152 2531.27 2532.978 2530.744 2532.452 2531.999 2524.399 2525.037 2520.05 2515.714 2509.129 2503.354 2506.281 2503.97 2506.022 2508.795 2511.126 2509.67 2498.831 2505.177 2505.31 2504.505 2503.891 2506.449 2507.469 2511.98 2506.139 2509.763 2509.895 2508.323 2506.311 2506.927 2505.232 2503.209 2502.544 2500.864 2496.651 2496.84 2492.533 2491.384 2495.419 2496.109 2487.942 2489.796 2491.131 2488.333 2494.656 2492.157 2494.439 2492.089 2492.583 2493.967 2488.296 2488.191 2490.209 2491.779 2491.886 2489.494 2485.048 2479.715 2475.465 2471.149 2470.895 2471.979 2471.477 2476.327 2474.221 2476.481 2479.984 2486.389 2484.089 2480.394 2481.314 2478.516 2472.469 2474.332 2471.805 2468.451 2461.701 2453.711 2447.951 2440.979 2434.189 2435.359 2427.775 2423.955 2417.008 2412.863 2411.415 2405.083 2403.913 2401.717 2402.783 2396.985 2401.61 2402.049 2398.065 2397.177 2399.778 2403.999 2409.044 2406.737 2406.371 2402.629 2397.344 2396.063 2390.825
-9999 -9999 -9999 -9999 -9999 -9999 -9999 -9999 -9999 -9999 -9999 -9999 -9999 -9999 -9999 2667.91 2712.779 2710.819 2703.491 2690.388 2679.723 2663.696 2649.057 2635.46 2626.906 2618.491 2612.997 2606.373 2596.219 2586.846 2581.857 2572.295 2570.748 2567.016 2560.685 2555.394 2553.949 2551.718 2552.719 2546.944 2545.445 2536.966 2538.48 2529.012 2530.908 2534.171 2531.096 2535.083 2530.632 2530.172 2526.5 2522.005 2515.563 2513.133 2506.213 2505.164 2506.696 2503.692 2507.892 2507.604 2502.191 2507.219 2503.87 2509.057 2506.123 2507.583 2508.475 2509.963 2504.73 2509.818 2504.548 2508.261 2507.578 2504.581 2504.932 2510.016 2502.559 2499.124 2494.867 2496.33 2493.361 2492.582 2499.921 2497.844 2496.245 2494.589 2491.556 2494.698 2493.917 2497.954 2494.415 2499.454 2495.491 2489.637 2493.608 2488.584 2490.032 2489.383 2493.029 2490.777 2489.545 2485.66 2475.672 2480.629 2473.948 2471.817 2471.165 2473.083 2473.942 2474.88 2474.656 2475.506 2477.597 2476.75 2480.079 2479.338 2475.335 2472.09 2469.017 2466.105 2468.833 2458.948 2454.534 2447.844 2443.636 2437.185 2434.48 2431.956 2424.124 2419.571 2411.552 2409.654 2405.405 2402.878 2407.425 2405.875 2397.941 2406.944 2405.583 2405.837 2405.063 2403.725 2406.009 2405.796 2408.64 2410.269 2405.417 2402.967 2397.834 2394.849
-9999 -9999 -9999 -9999 -9999 -9999 -9999 -9999 -9999 -9999 -9999 -9999 -9999 -9999 -9999 2654.698 2690.992 2709.819 2704.361 2696.726 2681.84 2671.951 2648.142 2638.223 2626.425 2619.201 2615.915 2603.815 2596.334 2590.763 2578.689 2572.414 2572.443 2564.967 2560.38 2554.37 2558.498 2559.89 2554.283 2547.577 2548.569 2540.397 2534.19 2537.531 2534.485 2529.3 2533.5 2535.924 2533.463 2530.633 2527.271 2526.088 2515.405 2515.449 2513.722 2511.312 2510.453 2505.91 2507.125 2509.788 2510.024 2509.736 2504.692 2501.5 2507.059 2503.232 2510.19 2509.558 2508.207 2514.18 2508.372 2507.93 2508.228 2504.824 2502.599 2506.686 2499.941 2494.137 2493.409 2492.319 2497.795 2492.417 2501.074 2502.802 2500.597 2495.742 2495.296 2497.644 2497.973 2499.427 2502.156 2501.58 2500.189 2497.802 2496.62 2493.465 2494.425 2492.461 2494.123 2490.972 2486.195 2483.495 2480.96 2479.681 2477.809 2473.071 2478.765 2478.704 2473.462 2474.29 2470.943 2469.79 2472.359 2475.636 2475.891 2471.51 2472.409 2471.438 2471.328 2466.151 2463.851 2460.452 2455.016 2449.244 2446.82 2442.886 2436.269 2428.321 2422.384 2420.008 2411.842 2407.139 2406.474 2402.694 2401.604 2405.439 2405.625 2402.219 2409.197 2403.061 2407.061 2407.22 2410.625 2409.98 2412.689 2407.18 2404.003 2405.439 2399.241 2392.128
-9999 -9999 -9999 -9999 -9999 -9999 -9999 -9999 -9999 -9999 -9999 -9999 -9999 -9999 -9999 -9999 2659.003 2707.617 2707.014 2694.438 2687.015 2671.535 2660.803 2645.521 2633.629 2628.414 2620.544 2608.081 2600.645 2591.764 2583.796 2571.647 2569.315 2564.81 2564.591 2562.432 2557.085 2556.268 2556.798 2556.582 2544.958 2543.786 2537.113 2540.059 2538.694 2536.831 2534.869 2535.573 2535.419 2533.485 2531.638 2520.766 2519.421 2516.868 2513.869 2513.458 2510.87 2509.08 2506.426 2510.483 2502.824 2509.802 2507.678 2506.416 2504.851 2506.694 2509.743 2511.02 2512.282 2511.267 2510.773 2507.962 2503.429 2504.806 2504.105 2502.008 2498.546 2495.571 2489.769 2496.641 2497.088 2496.721 2501.821 2505.541 2501.168 2495.47 2501.301 2502.388 2502.773 2504.584 2502.587 2506.36 2504.244 2505.874 2500.05 2498.754 2495.233 2493.513 2481.657 2482.466 2485.709 2478.826 2481.253 2481.36 2485.408 2485.096 2481.065 2478.653 2477.244 2474.828 2473.564 2468.471 2466.35 2467.681 2466.837 2469.063 2467.425 2469.185 2464.433 2464.509 2459.04 2460.189 2459.789 2448.707 2448.985 2440.374 2435.594 2426.652 2425.385 2420.032 2414.692 2411.96 2405.32 2404.998 2401.836 2403.514 2401.022 2406.228 2407.799 2407.603 2406.782 2411.461 2419.901 2410.24 2411.544 2408.061 2408.2 2403.861 2399.887 2398.082
-9999 -9999 -9999 -9999 -9999 -9999 -9999 -9999 -9999 -9999 -9999 -9999 -9999 -9999 -9999 -9999 -9999 2691.487 2706.949 2694.759 2689.438 2678.695 2666.693 2649.775 2637.109 2626.673 2618.207 2614.47 2597.543 2600.114 2586.762 2583.212 2572.634 2566.937 2564.943 2563.25 2565.148 2559.344 2558.051 2554.521 2550.499 2542.854 2546.816 2540.729 2541.208 2538.897 2536.493 2536.006 2535.043 2530.484 2528.781 2526.792 2518.855 2513.65 2509.676 2513.676 2515.051 2512.259 2507.993 2510.375 2509.021 2505.727 2507.215 2508.503 2507.724 2508.733 2506.94 2512.89 2510.564 2510.607 2513.739 2510.74 2506.554 2504.868 2502.902 2500.791 2496.65 2495.103 2491.98 2497.604 2495.884 2503.17 2502.831 2503.939 2499.951 2500.594 2503.09 2503.673 2505.279 2509.12 2507.03 2508.038 2506.45 2508.959 2504.361 2497.188 2496.297 2485.396 2481.047 2480.677 2483.081 2478.436 2481.385 2486.283 2484.465 2485.124 2484.924 2483.404 2474.589 2476.192 2472.096 2464.323 2463.142 2466.177 2465.044 2467.826 2466.315 2471.774 2460.531 2458.578 2455.456 2456.673 2452.924 2446.777 2444.665 2440.946 2438.478 2432.431 2425.269 2416.229 2413.857 2413.504 2406.303 2406.191 2405.41 2405.799 2408.742 2414.621 2406.911 2407.248 2412.506 2412.315 2416.53 2411.814 2412.936 2408.797 2408.076 2402.528 2400.965 2394.34
-9999 -9999 -9999 -9999 -9999 -9999 -9999 -9999 -9999 -9999 -9999 -9999 -9999 -9999 -9999 -9999 -9999 -9999 -9999 2686.167 2686.591 2682.062 2673.959 2649.511 2642.377 2634.28 2625.536 2618.282 2605.289 2604.861 2592.754 2584.96 2577.768 2575.353 2570.309 2569.011 2567.146 2562.669 2556.412 2553.806 2548.541 2548.376 2544.805 2546.716 2544.083 2540.308 2538.869 2536.208 2539.351 2539.565 2530.727 2527.157 2519.069 2517.96 2511.165 2516.62 2517.081 2510.333 2512.621 2512.286 2507.202 2510.718 2505.555 2507.345 2508.002 2507.467 2506.135 2513.698 2511.698 2513.483 2513.015 2504.867 2503.042 2506.28 2499.478 2493.924 2494.884 2491.93 2495.075 2498.385 2499.777 2501.179 2502.988 2509.282 2501.04 2505.472 2509.147 2505.32 2505.635 2511.612 2510.113 2509.749 2507.953 2507.642 2505.602 2496.126 2489.751 2483.692 2479.804 2484.987 2477.385 2485.949 2485.081 2488.654 2484.857 2484.965 2481.086 2475.798 2472.65 2469.234 2470.534 2460.828 2460.124 2454.233 2455.174 2459.288 2459.26 2455.877 2462.171 2459.255 2458.181 2453.211 2451.997 2446.302 2446.268 2442.205 2433.925 2432.986 2426.835 2421.5 2418.466 2411.327 2411.858 2406.464 2409.838 2409.777 2411.178 2414.044 2412.65 2414.325 2411.952 2414.902 2414.399 2412.398 2413.224 2412.699 2408.638 2406.159 2398.388 2391.861
-9999 -9999 -9999 -9999 -9999 -9999 -9999 -9999 -9999 -9999 -9999 -9999 -9999 -9999 -9999 -9999 -9999 -9999 -9999 2674.676 2693.871 2686.138 2680.586 2661.465 2641.833 2635.589 2630.656 2620.403 2613.868 2600.386 2601.348 2591.883 2585.507 2583.853 2572.798 2567.085 2567.514 2566.367 2559.648 2555.94 2549.264 2544.254 2547.913 2543.202 2542.002 2544.92 2540.77 2537.177 2536.107 2533.487 2529.95 2528.398 2527.508 2523.223 2521.303 2520.599 2519.343 2517.553 2514.423 2512.755 2510.848 2506.534 2508.573 2509.242 2509.255 2508.9 2510.646 2509.394 2507.439 2516.229 2509.925 2508.612 2506.202 2499.956 2497.458 2495.263 2493.681 2497.839 2496.184 2497.024 2497.754 2501.961 2505.365 2503.83 2505.463 2509.846 2507.16 2510.244 2505.299 2507.498 2512.735 2509.944 2512.837 2503.152 2502.132 2497.788 2487.677 2485.666 2488.069 2482.967 2484.883 2483.357 2485.247 2483.179 2485.118 2483.607 2480.554 2475.359 2471.216 2467.976 2465.838 2464.114 2460.666 2455.155 2448.517 2451.453 2456.59 2456.286 2451.49 2454.278 2451.382 2446.217 2447.002 2443.941 2440.006 2438.446 2437.545 2430.012 2427.604 2424.384 2416.618 2412.144 2411.498 2412.304 2411.993 2411.596 2415.028 2419.105 2415.751 2419.074 2418.293 2413.422 2415.536 2418.61 2411.576 2412.657 2407.974 2402.144 2399.382 2394.724
-9999 -9999 -9999 -9999 -9999 -9999 -9999 -9999 -9999 -9999 -9999 -9999 -9999 -9999 -9999 -9999 -9999 -9999 -9999 2680.247 2696.291 2690.11 2680.866 2659.734 2644.054 2637.325 2633.664 2621.38 2611.042 2608.869 2600.915 2593.968 2585.297 2577.538 2579.577 2568.769 2571.781 2565.952 2564.271 2550.314 2550.807 2547.36 2548.257 2545.689 2545.22 2548.666 2541.594 2539.654 2534.717 2541.798 2539.231 2530.698 2530.184 2525.308 2524.409 2526.214 2524.246 2518.364 2514.997 2518.005 2514.454 2511.882 2509.475 2508.788 2508.422 2509.444 2506.545 2506.58 2505.027 2503.23 2501.504 2504.193 2501.333 2498.931 2500.654 2493.312 2495.222 2500.141 2504.69 2503.213 2504.129 2512.325 2509.512 2506.959 2506.765 2510.64 2510.333 2510.447 2512.335 2509.205 2512.595 2510.04 2510.11 2506.689 2499.735 2494.416 2489.855 2489.532 2489.145 2488.15 2486.031 2488.815 2483.017 2486.492 2483.04 2479.933 2477.804 2474.47 2471.544 2464.036 2462.313 2462.066 2456.942 2455.748 2447.565 2447.958 2449.968 2446.97 2452.427 2451.035 2449.474 2441.535 2440.859 2441.384 2433.637 2437.772 2436.947 2427.728 2429.308 2421.542 2414.299 2416.982 2414.94 2415.688 2411.647 2416.23 2418.178 2421.874 2415.464 2420.5 2418.061 2422.651 2418.142 2418.924 2411.091 2409.81 2411.84 2405.363 2400.596 2395.098
-9999 -9999 -9999 -9999 -9999 -9999 -9999 -9999 -9999 -9999 -9999 -9999 -9999 -9999 -9999 -9999 -9999 -9999 -9999 2671.591 2699.747 2693.355 2684.974 2660.229 2653.249 2639.366 2632.887 2624.012 2616.095 2609.088 2598.915 2589.825 2581.486 2584.683 2580.588 2577.109 2572.841 2565.261 2566.485 2556.474 2555.25 2550.171 2547.505 2546.023 2545.849 2542.057 2543.175 2539.936 2539.98 2545.626 2541.773 2536.156 2531.462 2530.136 2526.374 2528.809 2523.647 2520.209 2522.404 2522.159 2512.532 2511.837 2511.549 2514.983 2513.836 2509.039 2508.81 2507.902 2508.043 2505.603 2510.68 2505.554 2505.686 2501.326 2500.17 2496.819 2498.963 2502.972 2511.909 2507.691 2504.901 2507.768 2509.075 2510.576 2509.153 2509.312 2511.948 2510.368 2509.791 2509.059 2514.464 2507.745 2509.777 2509.983 2501.148 2498.74 2490.459 2493.241 2488.868 2489.85 2490.246 2486.514 2487.023 2481.643 2479.738 2473.09 2471.087 2474.035 2468.068 2467.185 2458.46 2458.194 2458.266 2450.453 2443.85 2441.3 2445.511 2444.15 2445.506 2442.682 2442.323 2435.962 2438.561 2439.426 2435.107 2437.464 2436.431 2436.601 2426.385 2426.601 2423.904 2416.714 2414.825 2417.029 2413.518 2418.219 2416.291 2423.109 2424.076 2423.078 2423.59 2419.383 2419.088 2418.5 2416.393 2409.477 2405.069 2403.687 2399.003 2396.445
-9999 -9999 -9999 -9999 -9999 -9999 -9999 -9999 -9999 -9999 -9999 -9999 -9999 -9999 -9999 -9999 -9999 -9999 -9999 2670.197 2706.871 2694.061 2675.852 2665.174 2654.299 2645.942 2633.945 2625.229 2611.867 2608.44 2604.449 2593.777 2586.922 2584.56 2581.932 2578.457 2576.321 2570.184 2562.396 2558.468 2557.833 2552.285 2550.631 2547.66 2549.705 2545.005 2548.002 2546.294 2545.945 2544.643 2543.929 2540.896 2536.757 2530.789 2533.408 2529.447 2524.99 2523.932 2523.146 2524.948 2524.486 2517.328 2518.046 2509.432 2512.365 2508.975 2509.606 2506.807 2507.787 2508.658 2508.902 2509.099 2503.858 2501.041 2503.717 2499.518 2503.557 2502.827 2511.685 2505.487 2504.193 2507.331 2508.01 2513.549 2509.272 2508.841 2505.567 2511.241 2507.776 2509.392 2509.737 2506.447 2505.205 2505.107 2500.703 2499.967 2494.115 2492.635 2492.946 2492.024 2491.066 2487.039 2483.54 2476.045 2478.122 2477.048 2465.139 2468.83 2466.211 2462.636 2459.287 2457.972 2450.662 2443.505 2446.967 2440.09 2442.527 2442.261 2436.508 2442.257 2438.194 2437.293 2432.466 2430.235 2432.269 2436.992 2432.074 2433.013 2432.879 2430.617 2424.307 2422.214 2420.163 2415.418 2415.123 2415.586 2419.537 2424.78 2422.135 2428.872 2425.736 2424.269 2424.09 2417.591 2415.657 2410.534 2404.135 2404.023 2400.841 2397.021
